# .PCD v.7 - Point Cloud Data file format
VERSION .7
FIELDS x y z
SIZE 4 4 4
TYPE F F F
COUNT 1 1 1
WIDTH 1581
HEIGHT 1
VIEWPOINT 0 0 0 1 0 0 0
POINTS 1581
DATA ascii
-19.765499 -23.277201 4.42314
-20.544399 -24.425501 3.45614
-20.568199 -23.7278 2.83108
-20.5571 -24.0292 1.7602299
-20.512199 -24.9354 2.15521
-19.970699 -25.0012 0.60235798
-20.191799 -24.003401 0.63864499
-19.700899 -23.650999 0.107758
-19.3193 -24.5819 -0.224324
-18.4263 -23.7124 -0.66010201
-18.9118 -22.9335 -0.258533
-17.952101 -22.0123 -0.36018801
-17.453199 -22.609699 -0.61802697
-16.9779 -21.013901 -0.46027699
-16.4095 -21.5515 -0.30939299
-15.7175 -19.906099 -0.490554
-19.2253 -23.5774 4.8736701
-19.8608 -24.789101 3.91523
-19.7362 -25.361 2.5324399
-19.1926 -25.471901 0.86318702
-18.551201 -25.0375 -0.063302003
-17.735701 -24.142 -0.56440902
-16.9205 -23.010401 -0.53713202
-15.7936 -19.337601 -0.65474498
-15.903 -18.6998 -0.71594799
-19.2209 -20.9534 5.4879999
-19.2353 -15.5271 5.2184401
-18.2913 -14.5533 5.1826501
-19.7729 -17.1651 5.3687901
-19.6493 -17.833401 5.1130199
-19.6905 -18.853399 4.8337498
-19.7526 -19.447701 5.0923901
-19.641399 -20.183599 5.4046202
-15.2098 -13.6701 5.6672502
-16.8501 -13.8412 5.3527498
-19.639 -16.4547 5.3653402
-14.818 -16.7878 -0.40166599
-15.1552 -15.9265 -0.017673001
-15.555 -16.788601 -0.56260097
-16.639601 -15.9184 -0.30536899
-15.904 -17.9939 -0.67420298
-16.945299 -18.893299 -0.85098499
-17.135 -18.1339 -0.62719297
-18.3284 -19.7024 -1.1270601
-18.2323 -18.722401 -0.523049
-15.4146 -15.4896 0.465437
-17.0739 -15.3697 0.257229
-19.209299 -15.3022 2.4603701
-17.4084 -14.691 2.6549599
-17.380899 -14.8419 1.85603
-19.2194 -15.3931 1.60877
-19.0826 -15.552 0.732041
-17.277599 -15.045 1.01419
-18.832199 -15.8595 -0.019467
-20.7759 -16.6292 1.6386
-20.7633 -16.549601 2.5863199
-20.086201 -16.792601 -0.0099370005
-20.490601 -16.685699 0.67293501
-18.972601 -15.0996 3.6723499
-20.275299 -16.2593 3.7915201
-21.2043 -18.193701 4.1103902
-21.0135 -18.973 3.82988
-21.938801 -19.5389 2.6240001
-22.126301 -18.6611 2.8285
-22.137501 -18.712601 1.57377
-21.955299 -19.619499 1.46411
-21.3627 -19.373899 0.29618099
-21.5236 -18.5462 0.31279799
-20.7756 -18.218 -0.37844101
-20.6609 -18.960199 -0.32010299
-19.6973 -18.3382 -0.699265
-19.8759 -17.6966 -0.76760101
-18.504601 -16.9314 -0.91832203
-18.362 -17.591801 -0.85175401
-16.827299 -16.620501 -0.51380801
-16.9412 -17.2939 -0.63881397
-15.5214 -14.3133 4.1448302
-17.320999 -14.4136 3.8301001
-18.624599 -16.3575 -0.59018302
-15.5939 -14.7256 2.95871
-15.5842 -14.9653 2.1470201
-15.5276 -15.208 1.26983
-21.0585 -17.3349 4.0837598
-21.852501 -17.733101 2.8733499
-21.847401 -17.792601 1.73965
-21.300699 -17.7311 0.55035502
-20.6192 -17.5219 -0.123132
-19.9261 -17.135 -0.44400501
-15.907 -17.3489 -0.65596199
-20.5776 -19.5819 3.3734801
-21.251101 -20.019699 2.2379601
-21.233601 -20.1231 1.27351
-20.817301 -19.9583 0.33564001
-20.3158 -19.6185 -0.094377004
-19.495399 -19.0632 -0.341919
-18.245899 -18.375999 -0.47961801
-20.5746 -19.875099 3.3914199
-21.0903 -20.8032 3.9214201
-22.191601 -21.7152 2.9298201
-21.2803 -20.401699 2.28935
-21.3211 -20.561701 1.32232
-22.5224 -22.0975 1.7646
-22.152399 -22.0611 0.29049799
-20.950399 -20.4408 0.32842299
-20.4081 -20.0881 -0.136911
-21.2679 -21.5963 -0.51624101
-19.9618 -20.7859 -1.00116
-19.524599 -19.492001 -0.400125
-21.026899 -21.6968 4.2481799
-22.1402 -22.697399 3.2228501
-22.4867 -23.116301 1.93879
-22.131901 -23.084801 0.28222501
-21.2391 -22.5797 -0.63566601
-19.861601 -21.6689 -1.18575
-18.221201 -20.5138 -1.3185
-16.9168 -19.584299 -0.86553001
-20.6458 -22.5257 4.2234902
-20.005501 -22.693199 3.7595799
-20.7665 -23.5669 2.7882299
-21.667101 -23.532301 3.2350399
-21.9452 -23.910801 2.0339301
-20.8078 -23.8475 1.7352099
-20.488199 -23.804701 0.60926098
-21.6507 -23.883301 0.46740699
-20.909 -23.398399 -0.38519001
-19.9779 -23.436899 0.072403997
-19.1182 -22.696199 -0.31582499
-19.629 -22.4461 -0.927329
-18.126301 -21.2852 -1.08222
-18.056 -21.7871 -0.438894
-16.906401 -20.309401 -0.812572
-4.3855901 -23.4114 76.142601
-3.2987499 -24.412901 74.456902
-1.05356 -21.1234 75.284103
-2.09024 -19.477699 76.485703
-23.579201 -39.7043 56.510201
-21.5434 -40.317799 57.533001
-24.7687 -39.211498 55.978802
-23.6164 -38.110401 54.064499
-22.0431 -38.824501 54.4944
-19.997499 -39.564701 55.105499
-19.1894 -40.051498 58.761902
-18.063299 -39.522701 56.080399
-17.105301 -39.256401 60.135601
-16.098 -38.778801 57.6259
-15.0439 -38.033901 62.069599
-14.1906 -37.594501 59.900299
-12.6678 -36.311001 64.541
-11.9465 -36.0802 62.6134
-10.4022 -34.067799 67.224503
-9.66574 -34.057598 65.3769
-5.7991199 -27.906799 72.7714
-8.1561699 -31.187799 70.1231
-7.2120099 -31.331699 68.409401
-4.7293901 -28.0947 71.192497
-2.3405199 -24.797899 73.111298
-0.28430301 -21.533701 74.235703
-5.5878501 -21.4277 77.894997
-7.84794 -18.719 78.298897
-3.2402401 -17.829599 77.244698
-5.5300598 -15.1835 77.389503
-10.1288 -16.256001 77.943802
-7.4946699 -12.9599 76.942596
-12.388 -14.1281 77.362099
-9.9762297 -10.9306 76.181801
0.48897901 -15.9535 76.127998
-0.45579699 -14.0061 76.5812
0.61913902 -18.347401 75.2304
-2.7786701 -11.5698 76.623001
-4.882 -9.4478903 76.341904
-7.4317698 -7.3201799 75.687103
1.09583 -20.5837 73.000504
-1.47048 -24.628901 71.888199
2.60941 -16.365 74.080803
2.90394 -13.2677 75.2155
1.98747 -11.0865 75.910698
-0.45973301 -9.1472902 76.1483
-2.83761 -7.2045102 76.0028
-5.5974698 -5.1585102 75.448303
-15.2084 -38.690601 55.1161
-13.3018 -37.584202 57.806599
-20.6285 -38.1623 52.164299
-22.4806 -37.100201 51.940201
-18.6565 -39.083302 52.5019
-17.0632 -39.3144 53.295502
-11.2735 -36.143002 60.8909
-9.0815697 -34.225899 63.945301
-4.0195699 -28.290501 70.051399
-6.5641799 -31.645901 67.2024
-20.367001 -7.13165 72.585297
-21.849701 -7.0754199 70.846001
-23.829 -10.5445 70.0755
-23.0467 -10.8057 72.160103
-27.2754 -36.445801 56.3097
-25.7575 -38.2328 56.0453
-24.9027 -36.892799 53.884102
-26.4207 -35.2257 53.734699
-28.1658 -33.9879 56.846298
-27.3016 -33.2822 54.108898
-28.532301 -31.5375 57.696899
-27.723499 -30.925699 55.144901
-28.665899 -28.8321 59.162498
-27.937201 -28.308599 56.966599
-28.6066 -25.544201 61.1395
-28.0903 -25.1749 59.168201
-28.102699 -22.111 63.446999
-27.8127 -21.799101 61.5042
-25.663601 -14.4881 68.532097
-27.0807 -18.4041 66.084396
-25.7388 -13.9026 66.7089
-27.036301 -17.940201 64.178703
-24.1108 -10.0919 68.465202
-22.1759 -6.7456598 69.563797
-18.290001 -11.6653 76.070503
-21.3615 -10.7725 74.528801
-15.6199 -8.3676996 75.236198
-18.718599 -7.3738399 73.941399
-15.2169 -12.8189 76.858002
-12.841 -9.3484001 75.801697
-16.0142 -3.49633 73.260902
-17.9505 -3.4974699 72.192802
-19.892 -4.4919 70.853104
-13.0639 -4.6220002 74.428101
-10.3776 -5.73557 75.169098
-23.8997 -9.4777498 67.101501
-21.428101 -5.3685799 68.193604
-18.4422 -2.1444499 69.588203
-16.085501 -0.62001902 71.198097
-13.809 -0.59876502 72.675201
-11.2193 -1.87844 73.948601
-8.55937 -3.33884 74.844902
-27.627701 -27.9069 54.749298
-27.225901 -30.572701 52.551498
-24.1141 -35.8078 51.420399
-25.692499 -34.330399 51.000301
-26.6544 -32.8354 51.2486
-27.880501 -24.924801 57.346802
-27.751101 -21.6145 59.960999
-27.1908 -17.7124 62.800499
-25.826 -13.56 65.397697
-22.7728 -41.331501 59.6903
-25.0851 -40.9757 58.530998
-20.164 -40.949699 61.0471
-17.903099 -39.879799 62.593601
-15.7889 -38.699402 64.180496
-13.4131 -36.9244 66.406998
-11.2379 -34.628502 68.966301
-7.6093602 -27.7759 75.179398
-9.4683905 -31.6646 71.935799
-10.6442 -22.345501 80.3918
-8.5821695 -25.0893 78.694603
-13.3569 -19.98 80.359596
-15.6225 -18.103201 79.935699
-26.2139 -40.719101 57.978901
-18.9238 -31.2665 86.704201
-20.498199 -27.5205 87.196999
-22.5324 -26.156099 86.934601
-18.715 -25.7934 85.1287
-20.7859 -24.323099 84.442802
-16.817301 -29.3099 84.306702
-16.4613 -33.269199 83.109901
-18.569099 -34.4785 84.983704
-17.568501 -41.315899 74.683197
-17.008101 -40.523998 74.281197
-16.8304 -38.565601 77.4841
-18.222601 -39.7822 78.303902
-18.2031 -42.135899 73.134399
-17.661699 -41.3325 72.598701
-18.895201 -42.706402 72.2061
-20.242599 -43.576698 70.8563
-19.572201 -42.740101 70.188103
-18.2304 -41.812698 71.514198
-22.7169 -44.4389 69.627403
-21.4359 -43.596001 68.471901
-24.1553 -43.996799 68.759697
-22.9041 -43.093102 67.138603
-25.9154 -43.892799 68.056297
-25.1789 -43.314098 66.081802
-27.7418 -43.313702 67.308601
-27.887501 -43.105999 65.4561
-28.6241 -42.955502 67.1315
-29.4251 -42.4995 66.886299
-29.107201 -42.842098 65.062897
-18.8549 -37.902302 82.7136
-16.919201 -36.696701 81.153099
-15.7529 -40.5224 70.063499
-15.2154 -39.870201 70.8386
-14.3122 -38.013302 68.202301
-29.5488 -44.025501 63.371101
-28.409901 -44.166801 63.719799
-13.6234 -36.191502 75.7584
-13.8542 -33.842602 79.264397
-14.4243 -38.4039 72.530701
-17.4275 -42.0471 68.202698
-19.523001 -43.423901 66.6735
-22.5373 -44.271999 65.091797
-25.9785 -44.8587 64.306297
-13.9705 -30.4118 81.517502
-15.0252 -27.242599 82.627197
-17.110399 -24.1782 82.995903
-19.278999 -22.6917 82.545502
-17.4258 -20.4266 81.031097
-15.2091 -22.0795 81.476196
-12.993 -25.0089 81.471603
-11.6118 -27.8911 80.206596
-10.8093 -30.950701 77.063301
-11.366 -33.43 73.781601
-12.57 -35.938801 70.718201
-16.504601 -39.751701 66.004402
-18.5975 -41.204201 64.491699
-21.2395 -42.3951 62.894001
-24.052601 -42.836399 61.496201
-26.500099 -42.385799 60.484001
-27.7668 -42.3783 60.0033
-26.976101 -39.698299 58.127499
-28.392599 -37.535301 58.491001
-29.299999 -34.778301 59.097401
-29.527 -32.027802 60.1129
-29.617399 -29.358101 61.229301
-29.441401 -26.097099 62.986401
-28.825001 -22.748301 65.213097
-25.629801 -15.6029 71.333702
-27.5895 -19.423599 68.068497
-23.8894 -14.7492 75.427803
-21.219601 -15.2018 78.134903
-18.182699 -16.7201 79.329697
-24.048 -24.664 85.897697
-26.772301 -23.8736 83.226402
-23.0284 -22.980801 84.1549
-26.0226 -22.6952 81.960403
-28.8428 -24.5951 80.347702
-28.275101 -23.620001 79.339996
-31.3932 -27.6903 73.637398
-30.8626 -26.721399 73.208298
-31.5543 -28.1998 69.823799
-31.950399 -28.5961 69.986504
-31.6574 -29.4555 68.2995
-32.0858 -29.7805 68.558998
-31.6654 -30.392401 67.3769
-31.726801 -32.132999 66.296097
-32.196899 -32.465698 66.660896
-32.1474 -30.761 67.756599
-31.584101 -34.453602 65.067299
-32.133202 -35.184799 65.9189
-30.7584 -36.224998 64.616096
-31.4571 -36.8969 65.837898
-30.337299 -38.814899 64.345497
-31.1031 -38.914398 65.888603
-29.658701 -41.602402 64.777199
-30.3381 -40.914001 66.166397
-29.958099 -41.794601 66.491699
-30.0797 -25.203699 76.543701
-31.054399 -26.183901 77.260399
-31.243799 -27.585899 66.628799
-31.382601 -28.436501 65.900398
-30.2775 -26.932199 64.634598
-29.968399 -42.8368 63.115299
-29.2127 -22.6073 75.520599
-30.169201 -23.918699 71.633797
-30.827101 -26.060801 68.3461
-31.6042 -30.808701 64.277
-31.689899 -33.405499 63.1022
-31.2686 -36.7402 62.343498
-30.9424 -40.4338 62.529701
-27.408899 -21.121799 78.497101
-24.824499 -20.6661 80.522598
-21.4858 -21.2778 82.044197
-19.7806 -19.006201 80.497704
-23.147699 -18.159599 79.302597
-25.8346 -18.2834 77.171303
-27.959801 -19.365299 73.403198
-29.006201 -21.462 69.988899
-29.8125 -24.0914 66.930199
-30.434299 -29.994499 62.843399
-30.5231 -32.7117 61.710098
-30.339001 -35.867001 60.745499
-29.653799 -38.897999 60.216999
-28.3302 -41.149502 60.093399
-43.1572 -51.9375 81.207901
-43.600498 -51.565899 81.020897
-43.860199 -51.8923 80.943398
-43.383202 -52.221699 81.131203
-42.910801 -52.559601 81.149002
-42.6922 -52.297501 81.229897
-41.7957 -54.2803 79.242798
-42.077999 -54.275902 78.478401
-41.917599 -54.308601 78.268402
-41.507702 -54.3279 79.017998
-42.542301 -54.130798 77.781303
-42.3913 -54.175201 77.552902
-43.021301 -53.983501 77.273499
-42.8881 -54.025501 77.060501
-41.470798 -54.1091 79.858902
-41.750801 -54.1241 79.919197
-41.927299 -53.640598 80.516296
-41.5755 -53.570099 80.498299
-42.131699 -52.818501 81.052902
-42.383999 -53.041698 80.981697
-43.5303 -53.572201 76.929398
-43.4874 -53.5802 76.816803
-43.328201 -53.705399 76.883904
-43.379299 -53.714199 76.992401
-25.902201 -33.164299 90.859901
-28.0791 -35.2799 91.052299
-20.7052 -31.9837 88.404999
-23.5327 -32.342701 90.064301
-21.4039 -35.458099 87.368301
-20.0954 -34.8139 86.386398
-22.547899 -29.2598 88.482803
-24.628799 -30.393801 89.6045
-28.380301 -34.823601 90.953102
-30.5229 -37.539299 90.292397
-30.2777 -38.385502 90.256104
-25.862 -32.498699 90.537804
-32.129799 -39.8423 89.445099
-31.0424 -39.888699 89.398499
-30.127701 -39.880699 89.298103
-31.872101 -41.7808 88.510399
-30.378901 -41.143002 88.4683
-26.5718 -31.3701 90.359703
-24.403099 -27.6026 87.876198
-18.6537 -41.3601 80.090103
-18.6164 -42.2062 81.607903
-17.593201 -45.540901 79.069298
-17.909201 -43.973099 76.627701
-26.3857 -28.845301 89.084503
-32.8055 -35.412701 89.516602
-34.4226 -37.8167 88.275299
-33.327301 -39.0177 89.158699
-31.7409 -36.536999 90.347
-29.342199 -33.84 90.676102
-30.5739 -32.721001 89.9991
-27.922899 -29.9561 89.721703
-33.386101 -42.0313 88.393303
-28.662701 -40.450199 88.567902
-30.928301 -42.9319 87.612
-29.0124 -42.170399 87.4263
-31.0543 -44.1203 86.463799
-31.219801 -44.906898 86.119003
-29.4254 -44.577801 85.6399
-29.166901 -43.552299 86.0746
-27.866199 -41.664398 87.262901
-27.6056 -40.554798 88.152702
-28.494101 -44.045601 85.162598
-28.0956 -43.171398 85.620903
-26.644501 -40.655399 87.8508
-27.7673 -43.018101 85.496696
-27.8001 -43.6315 84.922401
-25.5886 -43.496399 84.633301
-25.713499 -43.0872 85.262703
-23.0361 -43.563202 84.250397
-21.515301 -41.471901 86.8675
-22.6315 -41.721298 87.235397
-21.431299 -43.191002 85.744499
-19.860701 -43.5033 85.387199
-24.284201 -41.159599 87.269997
-25.258499 -46.825901 78.603699
-23.9055 -47.152 77.4235
-21.400999 -47.621601 79.023598
-22.7616 -46.450298 79.802902
-25.8244 -44.657902 83.199997
-23.0257 -44.529701 82.311897
-27.729401 -45.398399 83.806
-28.7001 -45.333801 84.091103
-23.029699 -47.2062 76.273804
-20.2229 -48.044998 77.720001
-29.839899 -45.2103 84.593803
-19.2286 -45.966202 82.528801
-20.932301 -44.8386 83.596001
-21.531099 -45.721901 81.308197
-19.729 -47.3022 80.4226
-17.861099 -46.552299 80.782799
-18.4475 -47.8302 78.769302
-18.9459 -42.904099 83.367996
-20.890499 -38.541199 86.146698
-19.509399 -38.2953 83.513
-20.042801 -38.5653 84.523003
-29.450199 -47.309299 74.839699
-28.8881 -46.083302 74.650398
-29.468399 -47.040401 74.104401
-29.2617 -47.1991 74.093597
-31.2843 -48.046799 73.802101
-31.140499 -48.210899 73.821503
-39.543098 -53.253601 70.769997
-39.934299 -52.897999 70.499901
-39.9608 -53.032799 70.292198
-39.597301 -53.400299 70.613297
-39.1539 -53.5844 70.896896
-39.1576 -53.472599 71.051697
-38.093102 -53.4734 71.346397
-38.1922 -53.495602 71.569801
-36.5149 -52.845699 71.7826
-36.577099 -52.704498 71.988297
-35.042801 -51.652802 72.056
-35.123699 -51.5392 72.1409
-33.7351 -50.338799 72.816101
-33.840401 -50.234901 72.888603
-32.831799 -49.105301 73.315399
-32.710899 -49.238701 73.289803
-20.7801 -45.768501 72.2939
-18.860901 -45.7999 73.229103
-19.5919 -47.343102 75.169098
-21.8321 -46.805401 74.255699
-43.225399 -51.0965 81.135498
-42.7719 -51.4589 81.3722
-36.9412 -41.967098 85.544601
-36.3745 -43.2173 85.820702
-35.142101 -42.289299 86.9804
-36.218102 -40.8232 86.234497
-34.080502 -43.256001 87.426201
-34.571301 -41.355301 87.862602
-37.353199 -43.0336 84.336502
-36.8787 -43.967999 84.534203
-37.4846 -43.321999 84.048103
-39.0662 -45.6017 82.974602
-38.570301 -46.1376 83.335999
-37.036499 -44.1549 84.266998
-40.424099 -47.303799 82.559196
-39.888599 -47.7192 82.871597
-42.267601 -51.804501 81.408798
-42.657799 -50.329601 81.4198
-42.1847 -50.687599 81.665901
-41.5467 -51.008801 81.742996
-41.615299 -48.8834 82.021004
-41.068901 -49.2015 82.334702
-40.451302 -49.653702 82.3638
-39.184502 -48.115299 82.920097
-37.849998 -46.5844 83.398903
-43.181198 -53.500702 76.317596
-43.056198 -53.620499 76.397697
-31.278601 -45.372799 84.6959
-31.3493 -45.3503 84.484703
-31.1511 -45.584599 84.507698
-31.064899 -45.528198 84.681702
-31.8449 -45.400501 85.025803
-31.8123 -45.1595 84.923203
-31.535801 -45.408001 84.158997
-31.455999 -45.733898 84.086197
-32.040001 -45.427399 83.637299
-32.116901 -45.8675 83.495201
-32.436699 -45.139198 83.361
-32.608398 -45.530998 83.255501
-30.8318 -46.181801 83.068703
-31.3507 -45.953999 83.762604
-32.0737 -46.0541 83.242401
-31.8529 -46.076801 82.964897
-32.920399 -44.933498 83.294197
-33.0368 -45.2593 83.297096
-32.693802 -45.724899 83.037903
-32.602001 -45.825001 82.864403
-33.231499 -44.7108 83.482803
-33.4538 -44.835201 83.444199
-33.193501 -45.486198 83.112
-33.2225 -45.570599 82.940804
-33.34 -44.672798 84.040298
-33.539101 -44.775799 84.072098
-33.694302 -45.001598 83.421204
-33.758099 -45.0536 83.393303
-33.069801 -44.615601 84.541298
-33.2635 -44.799599 84.609802
-33.748798 -44.901299 84.090103
-33.5648 -44.894901 84.692703
-32.962399 -44.970501 84.8302
-32.7644 -44.715 84.749199
-33.247299 -45.094101 85.024597
-32.663399 -45.27 84.9226
-32.458599 -44.898899 84.9319
-31.849199 -45.6222 85.121002
-32.817299 -45.375999 85.1492
-30.945101 -45.6399 84.727097
-37.208099 -52.756199 77.621002
-38.314201 -53.557899 77.583397
-36.894901 -52.726501 76.928299
-38.075199 -52.901798 78.860001
-38.7948 -53.415401 78.913696
-38.427399 -53.696602 76.792999
-36.9366 -52.783298 76.259201
-35.8531 -51.811501 77.431
-35.319099 -51.714802 76.3461
-39.214298 -52.8162 79.843201
-40.0205 -54.002899 79.2332
-39.961102 -54.2584 78.206497
-36.603001 -51.898701 78.805801
-40.007999 -54.347301 77.568802
-38.8461 -53.724098 76.357498
-37.235001 -52.759998 75.750801
-35.209499 -51.628502 75.651001
-34.488899 -50.846001 77.370399
-34.043499 -50.630402 76.110298
-41.028301 -54.453701 78.334503
-41.438 -54.377998 77.694603
-40.3148 -54.354698 76.993698
-40.873402 -54.397099 78.731499
-41.9515 -54.274399 77.059402
-41.0196 -54.314999 76.326401
-40.706902 -54.096199 79.519096
-42.551998 -54.111099 76.723503
-41.858799 -53.9277 76.199799
-39.516998 -53.699902 75.923103
-37.673599 -52.509102 75.528198
-40.625702 -53.614799 80.1502
-39.794498 -52.3466 80.4935
-40.845001 -53.1679 80.528297
-35.638302 -51.513699 75.384003
-36.0131 -51.2103 75.283699
-37.6241 -51.564999 79.921097
-35.179699 -50.6978 78.761902
-33.800201 -50.405499 75.634804
-34.113098 -50.240101 75.2957
-34.4426 -49.966099 75.266998
-38.1632 -51.271301 80.4963
-36.2756 -50.342602 79.998802
-32.843399 -49.651699 77.370903
-32.367298 -49.254902 76.510597
-32.186199 -49.155399 75.886398
-30.8435 -45.573502 84.562302
-29.818001 -46.1759 83.602303
-29.8036 -46.237999 81.9814
-28.770399 -46.446602 81.126503
-27.0406 -45.670898 81.826302
-28.6329 -46.256599 82.891197
-31.732 -46.166901 82.662498
-30.993299 -46.273701 81.608902
-32.595001 -45.986599 82.488701
-32.2701 -46.272301 81.468102
-33.412998 -45.803799 82.634804
-33.417301 -46.035599 81.913101
-34.023499 -45.3325 83.110901
-34.1427 -45.382801 82.976501
-34.070702 -45.3064 84.183601
-34.150501 -45.303902 83.902702
-33.762001 -45.137798 85.0215
-33.388302 -45.195702 85.457298
-31.6035 -45.456699 85.468002
-32.804798 -45.363998 85.709702
-30.2113 -45.3871 84.867798
-41.678501 -52.2239 81.227097
-41.375999 -52.507702 80.943398
-40.7728 -51.417301 81.491699
-40.390301 -51.7757 81.010803
-33.992802 -45.034698 86.292297
-34.837502 -44.991001 85.634399
-34.418999 -45.112202 85.408798
-33.7089 -45.112999 85.921997
-32.2836 -43.1996 87.712303
-34.245201 -44.145802 87.184601
-35.6544 -44.573299 85.963501
-35.376701 -44.858799 85.857101
-34.196602 -44.815498 86.633904
-30.792101 -47.842499 75.381897
-32.6138 -48.872398 75.573196
-32.896301 -48.622799 75.580002
-31.277399 -47.442501 75.574303
-30.4963 -48.072102 75.768303
-30.395 -48.177799 76.314499
-31.025 -48.317902 77.211998
-29.107401 -47.5266 74.859497
-28.9606 -47.564602 75.224098
-35.897701 -43.929401 85.819702
-36.459202 -44.6576 84.626701
-36.579899 -44.846298 84.323097
-35.9095 -45.410702 84.316399
-35.840099 -45.143002 84.488602
-36.900101 -46.981602 83.122902
-38.2934 -48.602001 82.554802
-35.993401 -47.663898 81.895103
-35.977299 -46.764099 82.7024
-35.920101 -46.4534 83.113197
-34.5942 -46.527 82.187897
-34.9035 -46.127998 83.124001
-35.648899 -45.3041 84.489998
-34.853001 -45.415901 84.307602
-35.668201 -45.468899 84.255699
-34.933201 -45.583302 84.042397
-32.685902 -44.659199 86.6707
-32.761501 -45.1852 86.353699
-35.562099 -48.398602 81.239403
-33.6586 -48.011002 80.4114
-34.399601 -47.309502 81.382698
-32.111099 -47.256302 80.480499
-30.4072 -47.0242 80.623398
-29.8155 -47.340698 79.4571
-31.9198 -47.790699 79.577599
-31.537701 -48.188599 78.814697
-29.226 -47.5401 78.098099
-34.7808 -48.955299 80.232697
-33.941898 -49.5149 78.928902
-33.049099 -49.147499 78.4151
-33.304298 -48.569401 79.5597
-37.549999 -49.228298 81.562103
-36.9231 -49.7994 80.830399
-39.6903 -50.234001 81.958199
-39.4772 -50.404598 81.690697
-38.937099 -50.762199 81.112396
-29.884899 -47.407902 76.953598
-26.5888 -46.520401 79.794502
-24.5786 -45.344898 80.572701
-31.0142 -44.669201 69.331902
-31.556801 -44.066399 69.170097
-30.0235 -42.5396 68.516197
-29.0816 -42.8531 68.836197
-29.4391 -44.245201 70.567902
-30.808201 -45.671398 70.583504
-28.936199 -45.5382 71.238899
-28.705999 -46.2752 72.2472
-30.541401 -47.654598 72.344398
-30.438999 -46.898201 71.386002
-26.424601 -45.033901 71.2593
-27.4214 -46.430698 72.834702
-28.752501 -47.144901 73.198898
-30.6705 -47.952801 73.019997
-28.815701 -47.459301 73.915703
-30.970699 -48.2812 73.6912
-27.046101 -44.068199 70.141899
-27.9603 -43.057701 69.077797
-24.137899 -45.2327 71.649902
-25.0765 -44.7304 71.207901
-24.820801 -46.2043 73.672798
-26.037399 -45.652699 73.100601
-28.296499 -46.877102 75.922096
-28.212799 -47.209702 74.164398
-27.072201 -46.2971 74.703499
-27.0856 -46.9921 76.499496
-25.9886 -46.6399 75.358704
-38.8787 -52.935299 69.860802
-39.155102 -53.165901 70.094902
-39.526901 -52.798801 69.817101
-39.256699 -52.5989 69.632103
-38.403301 -53.027 70.113197
-38.669201 -53.245201 70.352798
-39.413502 -53.3922 70.301003
-39.755001 -52.9753 69.966103
-38.947601 -52.373199 69.409599
-38.5854 -52.700001 69.598801
-38.930099 -53.4739 70.563301
-38.290798 -51.790401 69.135399
-38.012699 -52.1366 69.294601
-38.1329 -52.8204 69.844902
-37.226002 -50.638 69.106201
-36.9342 -51.0495 69.258202
-37.611801 -52.342602 69.559601
-36.050999 -49.237202 69.330299
-35.682499 -49.792599 69.510399
-36.500702 -51.5023 69.6698
-34.784401 -47.630402 69.6716
-34.3479 -48.192902 69.777603
-35.409599 -50.372299 69.875397
-33.495998 -45.994701 70.028702
-33.026901 -46.607399 70.136002
-32.275398 -49.092899 72.431702
-32.214901 -48.929798 72.123497
-32.3932 -49.224098 72.750198
-32.606201 -49.356701 73.245697
-33.607201 -50.307201 72.253502
-33.572201 -50.198399 71.863602
-34.947899 -51.512798 71.602699
-34.9039 -51.345299 71.2966
-36.346199 -52.451801 71.129402
-36.305401 -52.303299 70.867104
-33.5453 -50.055302 71.510002
-34.924599 -51.251202 70.976997
-33.6478 -50.397499 72.643303
-34.958302 -51.668598 71.922699
-37.713902 -53.072601 70.709602
-37.535599 -52.870899 70.471397
-36.254601 -52.153198 70.5774
-36.378601 -52.599098 71.363701
-33.605598 -49.732498 70.959999
-34.974899 -51.031799 70.513
-37.3512 -52.675301 70.202797
-37.884998 -53.279301 70.917702
-36.215698 -51.932899 70.194298
-36.997101 -52.310101 69.921501
-34.0527 -48.955101 70.259804
-32.677399 -47.483501 70.537598
-32.2831 -48.479801 71.425697
-17.9744 -45.2813 74.506401
-17.9928 -47.0783 76.164703
-42.695702 -53.208 75.846603
-42.527599 -53.365299 75.939201
-35.621101 -39.865601 86.829201
-33.494099 -47.138 81.0541
-32.472401 -43.68 87.2612
-26.2931 -41.200001 87.101501
-26.0546 -42.323101 86.042099
-23.370001 -42.5429 85.930801
-27.9366 -42.2934 86.562302
-27.908001 -42.676102 86.021797
-29.079 -42.676498 86.928902
-29.164499 -43.182201 86.407501
-31.039 -43.3773 87.172096
-31.0026 -43.679001 86.747803
-32.5919 -44.210499 86.974297
-31.059299 -43.608299 84.552803
-31.6292 -43.379299 84.561203
-31.8993 -43.216702 84.399696
-32.173801 -43.125301 84.213699
-32.41 -43.178101 83.772102
-32.312901 -43.212799 83.2798
-32.042801 -43.405399 83.110802
-31.6133 -43.588699 83.1707
-31.261299 -43.844601 83.415802
-30.816099 -43.827499 83.876701
-30.653799 -43.773899 84.1633
-30.5886 -43.7962 84.351196
-44.228802 -51.450298 80.738899
-44.0051 -51.164001 80.814499
-44.3251 -50.807899 80.472298
-44.527 -51.085201 80.399101
-45.104401 -51.046799 77.349197
-44.757 -51.718399 76.950996
-44.825401 -51.7696 77.203697
-45.169498 -51.202599 77.677399
-44.324799 -52.4114 76.6558
-44.3923 -52.443199 76.922897
-43.979801 -53.029598 76.554001
-44.040798 -53.053398 76.8004
-45.335602 -50.854 78.255997
-45.2897 -50.625301 78.086998
-45.101601 -50.353401 78.862297
-45.179401 -50.673901 79.007401
-44.867298 -50.776402 79.829597
-44.696098 -50.479099 79.863098
-43.682899 -53.437199 76.851501
-43.624699 -53.434898 76.7463
-33.273602 -30.5413 88.642197
-31.2507 -28.285101 88.378304
-30.059401 -25.3901 81.827499
-31.357599 -26.207001 82.778801
-29.9076 -26.453699 87.107597
-28.395 -24.717501 84.864098
-26.056601 -25.9734 86.821503
-27.926201 -27.342899 88.056396
-35.731098 -33.410599 87.7258
-34.999298 -33.455799 88.2155
-32.828999 -30.765301 88.889
-30.510799 -28.2579 88.380898
-36.699699 -34.727901 86.773697
-36.7047 -35.6689 87.322502
-36.625801 -33.952801 86.283096
-37.380402 -34.755901 85.219803
-38.002499 -36.1884 85.6661
-29.4408 -28.752899 89.028603
-33.925098 -28.0037 70.419998
-36.743198 -28.071301 70.184196
-34.765301 -27.159599 74.257896
-33.066799 -27.453699 73.806297
-34.1591 -34.3311 89.224998
-35.867802 -36.700199 87.979897
-31.8493 -31.5529 89.512901
-38.207699 -37.632801 86.156197
-37.792 -34.161301 83.352798
-38.599201 -35.9342 84.053001
-36.768501 -33.055801 84.807098
-38.414398 -35.116299 81.783997
-39.137199 -35.7183 81.133904
-39.689201 -37.180698 82.1894
-39.140701 -36.7435 82.711998
-36.648998 -32.305099 83.956902
-37.240501 -33.112701 82.913498
-37.844501 -34.278 81.097702
-38.424999 -34.986198 80.554901
-36.579498 -31.5923 83.241302
-37.551899 -32.287701 79.769997
-37.628399 -32.5131 79.047203
-37.931 -34.389599 80.221901
-37.644001 -34.008202 80.9142
-37.4552 -30.409401 77.560303
-37.843498 -27.0986 77.043701
-37.7635 -28.292 78.166901
-37.157299 -28.4701 80.495796
-36.7425 -27.5809 79.802498
-36.710899 -29.8234 81.504402
-38.005901 -32.5438 72.730003
-38.664902 -31.8727 71.013603
-37.5793 -34.6782 71.079201
-37.8549 -35.334801 72.7593
-37.437599 -31.382401 75.625099
-38.019299 -33.5331 77.541901
-39.092098 -35.853802 79.269501
-38.998001 -35.118698 78.577698
-38.424099 -31.441 69.2752
-37.086201 -34.383202 69.751999
-39.236401 -36.6385 80.2342
-38.975601 -29.7446 71.492798
-38.010502 -30.688601 73.662201
-38.246399 -29.0439 75.562798
-38.728001 -28.1779 73.481598
-38.667099 -29.385 69.388
-38.4272 -27.7908 71.2407
-36.3731 -27.0061 75.282303
-33.7425 -26.769699 80.196198
-32.818401 -26.659599 78.6689
-31.9487 -26.526699 77.874298
-36.236301 -40.836601 70.857597
-36.1045 -40.986599 71.025398
-35.485699 -40.064701 71.589302
-36.676998 -40.716702 71.486603
-37.058102 -42.8125 71.075897
-36.928398 -42.897999 71.183403
-40.4244 -52.645802 70.2295
-40.362301 -52.506302 70.389999
-40.677299 -52.0863 70.346497
-40.706699 -52.167801 70.176399
-40.910198 -51.015999 70.308701
-40.7869 -51.0159 70.096603
-40.3563 -49.256901 70.234901
-40.388699 -49.311901 69.985298
-39.354599 -47.679501 70.177902
-39.4156 -47.663799 70.027199
-38.500301 -45.984001 70.726402
-38.558701 -45.9384 70.578102
-37.769402 -44.6241 70.942802
-37.665001 -44.696301 71.072998
-34.417099 -30.2206 67.162598
-34.154999 -32.535999 66.917801
-35.872299 -33.494499 68.139297
-36.613998 -30.938101 67.916298
-43.6441 -50.6632 80.967499
-37.838001 -39.830002 85.729599
-38.1679 -41.581299 84.988602
-37.3923 -38.781898 86.553703
-38.8769 -38.8806 85.200798
-38.265499 -42.7029 83.8908
-38.314602 -42.988998 83.674004
-39.695 -45.111599 82.814201
-40.9244 -46.7743 82.390999
-43.957001 -50.263302 80.624901
-43.076302 -49.874199 81.252197
-43.382702 -49.3339 80.891098
-42.029301 -48.325401 81.889099
-42.431198 -47.847698 81.445198
-41.283001 -46.201 81.946503
-40.1049 -44.527401 82.352699
-43.322399 -53.377701 76.2742
-39.587799 -37.753201 80.727402
-39.561199 -37.912498 80.605698
-39.3466 -38.054798 80.774101
-39.460701 -37.908699 80.899597
-39.386101 -38.250401 81.409203
-39.647999 -38.282101 81.405296
-39.5103 -38.386398 80.349297
-39.2547 -38.366402 80.577698
-39.376801 -39.244701 80.126801
-39.047298 -39.035 80.3862
-38.979698 -39.7188 80.2994
-38.6744 -39.448799 80.466904
-39.316898 -39.267799 79.501801
-39.427601 -39.3456 79.830399
-39.557301 -38.467499 79.955002
-39.4338 -38.334702 79.077599
-38.766399 -40.032501 80.638802
-38.472099 -39.868999 80.718399
-39.064301 -39.929798 79.865997
-39.055901 -39.921101 80.086098
-38.464901 -40.263901 81.119202
-38.366299 -40.0266 81.100403
-38.8866 -40.4035 80.312798
-38.888302 -40.2911 80.469704
-38.698399 -40.069199 81.678299
-38.587601 -39.885601 81.605499
-38.643501 -40.597 81.126701
-38.608299 -40.518902 81.141296
-38.957001 -39.605801 81.968201
-38.757401 -39.427101 81.902397
-38.823299 -40.272099 81.735603
-39.086399 -39.8578 82.130798
-38.933201 -39.087502 81.8871
-39.202202 -39.278301 81.935204
-39.407001 -39.474998 82.166702
-39.172699 -38.773899 81.816704
-39.504002 -39.029701 81.748802
-39.7047 -39.092999 81.953598
-39.888901 -38.288101 81.3908
-39.7052 -37.648499 80.662697
-42.623402 -47.500702 74.270401
-43.694099 -48.650101 75.087303
-42.9711 -47.499001 74.947098
-44.181099 -48.501701 76.414597
-43.6824 -47.786598 76.2584
-42.3717 -47.825199 73.737396
-43.462002 -49.103699 74.4571
-41.421501 -46.1479 73.514702
-42.0117 -46.193298 74.573601
-44.078201 -48.379101 77.586502
-44.638802 -49.9911 76.036102
-44.877899 -49.5718 76.9795
-42.7299 -46.309399 75.963097
-44.430199 -50.313202 75.517097
-42.127499 -48.296902 73.480797
-43.298901 -49.661999 74.291496
-41.027 -46.321499 72.951797
-40.318699 -44.9058 73.198799
-41.0923 -44.822102 74.306602
-44.183201 -50.825802 75.198898
-44.547699 -51.541199 76.2519
-44.895599 -50.925701 76.540199
-45.021599 -50.612999 76.8069
-43.861801 -51.722301 75.007698
-44.179401 -52.242001 76.025703
-45.106499 -50.0826 77.477798
-43.477501 -52.451 75.448799
-43.8955 -52.885502 76.100098
-43.094601 -50.436199 74.263199
-41.811798 -48.734001 73.6082
-44.961601 -49.659302 78.138397
-44.739899 -49.614799 78.721199
-43.967899 -48.539398 78.557198
-40.813599 -46.7925 72.982697
-40.505501 -47.112099 73.199402
-42.9617 -46.695801 77.444603
-41.606899 -44.834599 75.7798
-39.897202 -44.843498 72.806
-39.603401 -45.231602 72.748299
-39.353802 -45.485802 72.988297
-42.973202 -46.8834 78.264603
-41.8764 -45.233299 77.400299
-39.2356 -42.9893 73.323898
-39.990101 -43.132099 74.055099
-38.859798 -43.067402 72.790001
-39.6469 -37.209499 79.042
-39.568901 -37.6138 80.513901
-39.369099 -36.462502 77.909897
-38.327599 -35.374401 76.5895
-38.741798 -37.350201 76.500099
-38.9673 -37.878502 77.729797
-38.8578 -39.0993 77.959999
-39.257301 -39.301899 79.170898
-38.822399 -40.294998 78.428101
-39.037899 -40.1091 79.499397
-38.839699 -41.089001 79.397202
-38.960201 -40.743401 80.060997
-38.756802 -41.173599 80.835701
-38.7701 -41.002399 80.9086
-39.1064 -40.782902 81.603302
-39.2341 -40.5961 81.787903
-39.456501 -39.9431 82.379501
-39.696899 -39.440701 82.530296
-39.9478 -38.8479 82.395599
-39.892899 -37.894699 81.621902
-39.526699 -36.889198 80.545799
-44.352001 -49.792801 79.562599
-44.234699 -49.891998 80.0411
-43.7075 -48.749599 79.471703
-43.614899 -48.8246 80.173103
-39.841301 -39.518799 83.076698
-39.624401 -40.363602 82.993599
-39.628399 -40.620499 83.411499
-39.9459 -39.604 83.530197
-38.9146 -37.150501 84.635696
-39.910099 -39.603298 83.983002
-39.624001 -40.9842 83.886497
-39.424198 -41.1343 84.214401
-39.563999 -39.293701 84.716797
-37.170898 -42.066101 72.839897
-38.2617 -43.728298 73.090599
-38.475601 -43.525002 72.8535
-37.429001 -41.788101 72.302597
-37.8018 -41.4077 72.378799
-38.141201 -41.111401 72.720497
-38.687401 -41.3279 73.656799
-37.067402 -40.169201 71.462799
-36.871601 -40.443699 71.257103
-38.790901 -41.290001 84.477303
-38.945499 -42.688202 83.225601
-38.912102 -42.419899 83.488701
-39.267799 -42.016201 82.8983
-39.429798 -42.1992 82.683098
-40.311798 -43.8694 81.540001
-41.530499 -45.648899 81.052803
-39.905998 -43.180199 80.879601
-40.3423 -43.696701 79.877403
-39.505299 -41.93 80.988899
-39.429401 -42.1161 79.944504
-39.813999 -42.901199 81.306602
-39.407501 -41.875301 82.746101
-39.436798 -41.474899 81.952797
-39.448601 -42.020199 82.501701
-39.405998 -41.262402 82.195099
-40.0793 -38.509602 82.958504
-39.752499 -38.2127 83.391998
-39.757301 -42.422001 78.896896
-39.924999 -42.294498 77.503998
-40.6898 -43.720901 78.860397
-39.066399 -39.124901 76.605698
-39.247898 -40.7458 77.169197
-38.354198 -39.212898 73.862801
-39.310398 -41.0979 75.208298
-39.310501 -41.0485 76.148499
-38.806 -39.139099 75.285698
-40.0284 -42.435398 76.439903
-40.018902 -42.789299 75.181297
-40.5998 -43.4412 75.839798
-40.711498 -43.545101 77.481003
-41.784199 -45.364799 78.574997
-41.621498 -45.514198 79.673103
-42.746799 -47.445702 80.540001
-42.816601 -47.223 79.312401
-42.772598 -47.398399 80.161697
-37.733002 -40.248501 73.312302
-37.4118 -33.637699 74.6185
-38.153198 -35.970798 74.428902
-30.5014 -41.709599 68.140701
-32.199699 -43.6712 68.781601
-33.502102 -43.240898 69.360497
-32.294998 -41.698502 69.286102
-34.8634 -42.860001 69.360397
-35.879002 -42.785301 69.867897
-34.657902 -40.8283 69.530701
-33.660702 -41.226398 69.116203
-35.770699 -40.742599 69.942596
-35.0285 -39.447498 69.369003
-33.2752 -38.6894 68.275703
-36.453899 -42.676899 70.336601
-36.377201 -40.561401 70.407402
-37.0578 -42.728298 70.866997
-32.049198 -39.499901 67.972603
-30.7698 -40.565399 67.817596
-32.991299 -37.292999 67.835899
-33.5709 -36.278198 67.647697
-34.4575 -37.8736 69.316002
-35.157299 -36.613899 69.030602
-36.7556 -39.160198 71.9972
-35.658199 -38.4646 70.719902
-36.253502 -39.874599 70.4338
-36.235401 -37.292301 70.6045
-37.091702 -37.863998 71.856903
-39.970299 -52.422199 69.716599
-39.652401 -52.229599 69.5019
-40.146702 -51.8974 69.667297
-39.837502 -51.7187 69.447701
-40.2714 -52.6096 69.902901
-39.3172 -52.032501 69.2593
-40.4519 -52.085701 69.8573
-38.664001 -51.5425 68.992401
-39.525501 -51.549999 69.198799
-37.653702 -50.393101 68.9244
-38.958302 -51.114201 68.934898
-36.618999 -48.938202 69.075897
-38.233799 -49.921299 68.8657
-35.3349 -47.298698 69.321602
-37.294601 -48.652599 69.000702
-34.099899 -45.645802 69.641998
-36.953999 -44.606499 69.924698
-37.240501 -44.563599 70.127998
-37.504501 -44.561298 70.3787
-37.8521 -44.571098 70.811699
-37.9981 -46.160801 69.810097
-38.272701 -46.051102 70.088799
-38.793999 -47.796501 69.491699
-39.083099 -47.740501 69.684097
-39.4856 -49.402199 69.391502
-39.737801 -49.357899 69.555901
-38.565899 -47.929401 69.287498
-37.709801 -46.256199 69.577797
-39.367199 -47.646599 69.877098
-38.5308 -45.9431 70.377701
-39.840599 -50.7682 69.401901
-40.132401 -50.866402 69.587502
-39.219398 -49.448601 69.201897
-39.975899 -49.317402 69.694603
-38.161301 -48.125099 69.034698
-37.174301 -46.476898 69.304298
-39.540298 -50.678299 69.187202
-40.414902 -50.971401 69.743896
-38.848499 -49.531101 68.972702
-39.079102 -50.410702 68.955498
-36.185001 -47.010799 69.2715
-35.0215 -45.351898 69.457603
-36.2383 -44.871601 69.590599
-34.401501 -28.937 68.158401
-36.6269 -28.7008 68.568298
-42.874901 -53.0485 75.778099
-39.434601 -41.7188 78.297897
-39.142601 -37.5951 84.166397
-37.315399 -29.821301 79.460602
-37.232201 -32.1264 80.856003
-36.717098 -31.6908 82.265099
-37.580502 -33.852299 81.534103
-37.4851 -33.582802 82.132103
-38.235401 -34.9072 82.198898
-38.0191 -34.520901 82.780998
-38.874901 -36.497501 83.095299
-38.799198 -36.2981 83.571602
-39.488098 -37.919498 83.774696
-37.883598 -37.141399 80.966499
-37.780102 -37.272999 80.856903
-37.701698 -37.546101 80.6819
-37.518398 -38.136501 80.512703
-37.1875 -38.5037 80.584396
-37.006901 -38.8769 80.807602
-36.918098 -39.0117 81.143097
-37.112598 -38.888199 81.590202
-37.260201 -38.485199 81.853798
-37.419601 -38.180801 81.838501
-37.631401 -37.903801 81.776398
-37.818401 -37.4422 81.416702
-41.758999 -52.152 75.904198
-40.042198 -50.485699 75.479897
-39.856098 -50.649799 75.482002
-41.549801 -52.305401 75.889297
-40.742199 -52.840599 75.966797
-39.880501 -53.3717 75.921303
-38.112598 -52.121601 75.854103
-38.4436 -51.835999 76.062103
-39.170898 -51.2309 75.806702
-36.471298 -50.874901 75.677803
-33.3923 -48.459702 75.650101
-31.685499 -47.082802 75.694603
-37.013802 -50.481602 75.944199
-37.6408 -49.799198 75.466599
-38.386299 -48.969101 74.892899
-34.937199 -49.682999 75.699303
-35.755699 -49.0709 75.917397
-34.3377 -47.5354 75.845802
-32.91 -46.182701 76.223198
-29.493799 -45.2939 74.9506
-36.196301 -48.277199 75.346802
-36.902302 -47.4002 74.779404
-34.833401 -46.756401 75.509804
-35.534698 -45.7467 75.082802
-33.551601 -45.295601 75.6856
-34.3069 -44.3321 75.217796
-32.0425 -41.684299 75.542702
-31.0959 -42.700298 75.912003
-30.303699 -43.961601 76.166298
-29.126499 -45.011902 74.5606
-29.8328 -46.452599 73.816597
-29.1908 -44.962601 74.815804
-29.1464 -42.921101 75.441597
-30.238701 -45.911999 73.571999
-31.5539 -47.597698 73.525299
-30.6404 -45.677601 73.634499
-31.071301 -45.928398 74.324402
-32.172298 -46.895901 73.294098
-31.923 -47.022099 73.179398
-32.274399 -47.0989 74.335503
-31.5734 -45.633801 74.690804
-29.6528 -41.662201 75.254997
-31.8445 -45.1577 74.715401
-32.928001 -47.083599 74.794296
-29.889999 -41.6978 75.568604
-29.2675 -42.9585 75.820999
-29.956499 -41.292099 75.226501
-32.337299 -44.2892 74.6548
-33.091 -46.5769 74.783798
-30.089899 -41.453701 75.5513
-30.6112 -40.410301 74.9618
-32.8792 -43.923698 74.351402
-33.818901 -46.142799 74.501801
-33.3899 -43.9398 74.012001
-34.631901 -45.457001 73.706398
-34.159801 -45.754101 73.954803
-30.9231 -40.6036 75.253899
-39.166 -52.503201 71.483002
-39.1423 -52.246399 71.9804
-39.509499 -51.867802 71.614403
-39.544201 -52.119598 71.194199
-38.4473 -51.531898 71.813698
-38.796902 -51.1245 71.5401
-36.974899 -49.795601 72.070702
-37.3946 -49.4245 71.8601
-35.611401 -47.639 73.387199
-36.0457 -47.300598 73.128899
-36.659599 -50.104698 72.631599
-38.040199 -51.779301 72.148697
-35.278999 -48.019299 73.935204
-38.728901 -52.456699 72.277901
-38.727699 -52.718102 71.762802
-39.412998 -52.0266 71.094299
-39.0564 -52.431801 71.3946
-39.302502 -52.098099 70.7155
-39.009701 -52.588299 70.983299
-38.606602 -52.487 71.640999
-38.6157 -52.728298 71.138702
-34.089401 -48.725201 74.445
-33.421501 -48.4967 73.890198
-34.5499 -48.4739 74.311096
-35.208698 -50.258598 73.584
-34.5075 -50.0019 72.9888
-35.864101 -50.334801 73.237396
-33.465199 -48.204498 73.169899
-36.325001 -51.354 73.106003
-35.8745 -51.396099 72.631302
-37.100498 -51.666698 72.778999
-34.5868 -49.540401 72.806602
-36.9547 -52.128201 72.540001
-37.502399 -52.122002 73.0177
-35.8148 -50.9547 72.388298
-37.940498 -52.611801 72.1987
-38.215199 -52.4576 72.670403
-36.9706 -51.762001 72.2575
-37.871498 -52.250198 71.939697
-33.3321 -48.288502 72.958603
-34.391602 -49.571899 72.642899
-33.0285 -48.840302 73.234001
-35.6217 -51.090302 72.142502
-34.068199 -49.9608 72.8424
-36.891998 -52.092701 71.777702
-35.417198 -51.3368 72.125504
-37.7644 -52.526699 71.3955
-36.747398 -52.4207 71.765701
-41.883801 -52.000702 75.734299
-40.184799 -50.349899 75.329498
-42.377102 -51.349098 75.208199
-42.809898 -50.699402 74.562202
-41.624401 -48.9179 74.2248
-40.834 -49.713799 75.035103
-41.471802 -49.073502 74.657097
-40.3955 -47.294998 73.857101
-36.9132 -42.313801 73.269096
-38.159401 -44.111 73.438301
-39.368401 -48.223202 74.665001
-40.178398 -47.594799 74.475899
-39.307598 -45.696201 73.6716
-38.880001 -46.220798 74.467796
-37.446499 -44.699402 74.403503
-36.379299 -43.017899 74.613503
-34.931599 -40.333199 72.427696
-37.924301 -46.700802 74.544998
-36.611401 -45.134399 74.684799
-35.359798 -43.646 74.846603
-33.093201 -40.878201 74.985298
-34.314301 -40.302898 74.305496
-35.494202 -41.2883 71.189201
-34.535 -40.078098 72.051201
-34.598598 -40.029301 72.306801
-34.890499 -41.668301 71.413696
-33.049099 -39.360901 73.630798
-36.397099 -43.179501 71.278198
-34.7033 -41.971199 71.749397
-35.249599 -42.116798 72.385803
-35.724701 -43.554901 71.413803
-35.6702 -43.7061 71.668999
-36.3251 -43.4039 72.454903
-35.1646 -42.3577 73.024498
-34.757999 -42.499802 73.363602
-31.834499 -39.671902 74.242798
-36.534698 -43.7934 73.120903
-33.248501 -39.3269 73.973999
-32.0168 -39.757702 74.581802
-33.968102 -42.801399 73.898102
-31.5026 -39.881699 74.509102
-36.082199 -43.848202 73.396004
-31.7959 -39.8974 74.759697
-33.5173 -43.341499 74.055298
-35.584801 -44.531799 73.682503
-34.998299 -44.9893 73.565804
-40.003899 -51.4604 71.580704
-40.0079 -51.735298 71.092499
-39.275501 -50.776299 71.429398
-37.8106 -49.033199 71.682899
-36.453899 -46.870399 72.9963
-39.638302 -50.3214 71.407204
-38.333199 -48.577999 71.855103
-37.033699 -46.418598 73.121002
-40.316502 -51.0084 71.541298
-40.316002 -51.269199 71.025902
-39.9016 -51.660702 71.002502
-39.853699 -51.818298 70.591698
-40.051998 -51.1684 70.970398
-40.0396 -51.429298 70.477997
-37.395699 -44.8713 72.046303
-37.866001 -45.279999 72.692703
-37.592201 -45.698601 72.899498
-38.353298 -46.4935 71.204399
-38.868099 -46.9203 71.8862
-38.794102 -47.6619 71.877899
-36.810001 -45.153198 71.617996
-39.465401 -48.1203 70.965202
-39.6535 -48.317699 71.5616
-39.801998 -49.202202 71.525497
-37.861599 -46.553001 71.287201
-40.3251 -49.547001 71.708099
-40.1017 -49.257401 71.079903
-38.960602 -48.084999 70.928802
-40.483299 -50.3885 71.617996
-40.4007 -50.3675 71.057198
-39.647598 -49.319901 71.015503
-39.959301 -50.345501 70.971001
-36.785801 -45.137901 71.356201
-37.810699 -46.452801 71.056503
-37.3951 -44.8568 71.208099
-38.965599 -48.0397 70.591003
-38.2402 -46.1549 70.9067
-39.7229 -49.5103 70.464203
-39.172699 -47.910801 70.383102
-39.9566 -50.526901 70.378403
-40.006401 -49.447701 70.2537
-43.090199 -54.384899 78.006798
-43.592201 -54.220299 77.612198
-42.523102 -54.527401 78.604797
-42.185799 -54.425201 79.932503
-42.247002 -54.569 79.301102
-42.818298 -53.550301 80.936501
-42.3643 -54.062698 80.545502
-43.3339 -53.109402 81.020302
-43.791302 -52.792999 80.954399
-44.282902 -52.453201 80.751602
-43.860401 -53.9828 77.458397
-43.9547 -53.7976 77.401001
-44.480202 -54.455101 79.001999
-44.806301 -54.532902 79.754097
-45.2085 -54.091599 79.525101
-44.793301 -54.054298 78.703697
-44.207901 -54.691502 79.194901
-44.3969 -54.812599 79.775299
-45.250702 -53.958 79.878899
-44.8116 -54.3853 80.127998
-44.248699 -54.1021 77.9758
-43.948898 -54.325199 78.098801
-44.621399 -54.021099 80.431198
-45.0732 -53.632702 80.135803
-44.3465 -54.676498 80.148804
-44.167099 -54.301102 80.501701
-44.226601 -53.388802 80.758698
-44.6996 -53.039398 80.497101
-43.796799 -53.676102 80.850502
-44.3354 -53.934898 77.951302
-42.655499 -54.855801 79.355103
-42.626701 -54.655499 80.0019
-43.015598 -54.733002 80.131302
-43.196999 -55.028 79.680603
-42.814201 -54.399899 80.391296
-43.827301 -54.9062 80.028
-43.6548 -54.577202 80.376099
-43.351299 -55.0742 79.346298
-42.841202 -54.924 78.829498
-43.319199 -54.0406 80.753502
-43.939499 -55.0107 79.6959
-43.445599 -54.959599 79.194199
-43.026299 -54.7994 78.876999
-42.551498 -54.671501 78.793198
-42.769402 -54.709599 78.767502
-43.462898 -54.295898 79.449203
-43.255402 -54.090801 79.3097
-43.306198 -54.325901 79.387199
-43.5452 -54.188499 79.363899
-43.094398 -54.274399 79.233398
-43.775501 -54.663601 79.446602
-43.415199 -54.681599 79.304703
-43.930801 -54.484699 79.292198
-43.397301 -54.061199 79.067596
-42.919701 -54.220501 79.027397
-43.067501 -54.563999 79.055603
-43.9212 -54.938202 79.392799
-43.1264 -54.050701 78.972099
-42.803699 -54.493801 78.896698
-42.6707 -54.424702 78.704399
-43.104099 -54.180401 78.539597
-43.6119 -54.195999 78.700401
-42.6133 -54.534599 78.776703
-43.129299 -54.2995 78.239601
-43.7687 -54.332199 78.357597
-44.418499 -53.466499 77.228798
-44.7323 -52.886902 77.244904
-45.1171 -52.160999 77.401199
-45.4636 -51.6348 77.808701
-45.6199 -51.2924 78.339104
-45.578899 -51.130199 79.054001
-45.310101 -51.277199 79.780403
-44.967201 -51.619301 80.262497
-44.665901 -51.995201 80.548698
-44.143299 -53.7248 77.327103
-45.695801 -53.721401 79.3414
-45.278099 -53.727299 78.631798
-45.945202 -53.4002 79.056999
-45.569801 -53.449001 78.563004
-45.733898 -53.543999 79.700104
-44.740601 -53.602901 77.7314
-44.493198 -53.879002 77.862297
-45.542702 -53.180698 80.003799
-45.813301 -52.7994 79.7379
-45.992001 -53.1754 79.3853
-45.118301 -52.575298 80.345001
-45.405899 -52.208302 80.103996
-46.066601 -52.410301 78.349197
-46.003601 -52.007198 78.745003
-45.866901 -51.699699 78.498497
-45.752899 -52.0303 77.917999
-45.82 -51.658001 78.996696
-45.9907 -52.446301 79.292397
-46.1301 -52.8055 78.959503
-45.5797 -52.4258 77.558899
-45.959599 -52.694801 78.136101
-45.675598 -51.890999 79.660103
-46.075298 -53.062302 78.705002
-45.494499 -52.547798 77.731796
-45.790798 -52.820202 78.106102
-45.3316 -52.135399 77.503403
-45.358898 -52.347301 77.566002
-45.310299 -52.4977 78.457397
-45.064701 -52.4403 78.470299
-45.3153 -52.606098 78.589699
-45.182999 -52.694401 78.603996
-45.1898 -52.3629 78.2612
-45.592602 -52.695301 78.294502
-45.648998 -52.954498 78.5774
-45.423199 -53.123199 78.599701
-44.931702 -52.661499 78.355698
-45.0443 -52.2822 78.041603
-45.366798 -52.4664 77.988701
-45.872898 -53.157799 78.487297
-44.8727 -52.4575 78.161797
-45.225899 -52.2841 77.772797
-44.791901 -52.6408 77.7565
-45.0742 -52.232101 77.589302
-44.8904 -53.0298 78.107201
-45.203499 -52.1717 77.574898
-44.762699 -52.809399 77.481697
-44.860001 -53.336601 77.851196
-24.422899 -40.565899 88.491898
-24.9779 -40.2561 88.513496
-24.6793 -40.518501 87.963898
-27.885401 -39.366001 89.510803
-28.4193 -39.301601 89.700302
-28.296 -39.6134 89.244698
-21.8874 -35.695801 89.772697
-22.2103 -36.014 92.0261
-21.4259 -38.691898 91.833298
-21.109301 -38.7234 89.292999
-27.472601 -36.7715 93.232002
-26.2995 -34.976299 93.018997
-26.113701 -34.382801 92.029503
-27.6737 -36.091801 91.892403
-23.403999 -41.222698 89.602898
-22.4895 -41.640999 89.607903
-23.1292 -41.522701 92.290604
-23.552401 -41.5163 92.365097
-28.546 -38.638199 92.781502
-28.8102 -38.416599 92.822701
-29.1553 -38.100201 91.531799
-28.9939 -38.296902 91.343102
-24.745001 -34.344002 92.6353
-24.5334 -33.803398 91.370399
-26.5439 -36.706402 95.105003
-25.302299 -36.4417 95.023499
-23.913099 -37.2173 94.950897
-23.396601 -39.050598 94.761101
-27.492201 -37.580601 94.966904
-27.553499 -38.303699 97.124496
-26.9128 -38.152401 97.2659
-26.1294 -38.491501 97.405899
-25.606701 -39.567799 97.253304
-28.5832 -39.172298 94.716599
-28.338301 -39.523399 97.108002
-28.352501 -39.3624 97.188301
-28.6973 -38.948799 94.826103
-28.087299 -38.702202 97.080704
-26.816401 -39.1217 98.195801
-26.564699 -39.791901 98.170502
-27.5655 -39.7411 98.177299
-27.7229 -39.488998 98.123398
-27.4375 -39.135399 98.096001
-26.3869 -40.580799 97.005501
-26.0861 -40.5825 97.105797
-26.8048 -40.1012 98.211304
-27.011 -40.137402 97.985298
-24.568501 -41.553398 95.091797
-24.979 -41.561501 95.004997
-27.366501 -39.668201 98.357201
-27.4674 -39.593102 97.896599
-27.0502 -39.8437 97.724403
-21.356001 -38.2453 87.182999
-22.0989 -35.640301 87.651802
-24.2246 -33.879002 90.073402
-25.8883 -33.852901 91.406197
-27.787201 -35.688202 91.411301
-27.9683 -35.5471 91.166298
-26.028601 -33.6106 91.1315
-28.8078 -38.144299 91.135201
-29.4384 -39.335999 90.073196
-29.882401 -38.248199 90.360001
-29.7307 -39.5672 89.774597
-23.8204 -41.0541 88.631798
-22.0728 -40.970001 87.5737
-26.920401 -39.924801 88.713203
-27.5205 -39.806499 88.954597
-23.3885 -41.124298 87.949303
-21.8878 -41.1679 87.201103
-21.228201 -38.240601 86.744003
