# .PCD v.7 - Point Cloud Data file format
VERSION .7
FIELDS x y z
SIZE 4 4 4
TYPE F F F
COUNT 1 1 1
WIDTH 1708
HEIGHT 1
VIEWPOINT 0 0 0 1 0 0 0
POINTS 1708
DATA ascii
-12.5412 6.4488101 20.344299
-12.0411 8.8055201 18.7477
-11.8227 12.448 17.415199
-11.5855 14.1421 16.5716
-11.6094 16.016701 15.6158
8.1259003 -26.200899 44.049702
9.3303003 -26.766199 47.964001
8.45578 -26.791901 47.549702
7.868 -25.009001 40.170799
3.9630599 -28.6968 47.563202
0.61667901 -29.0135 48.194801
0.61617702 -28.1203 45.211498
4.2868299 -27.9072 44.539001
5.6697898 -27.923401 47.164299
5.26124 -27.458799 44.1875
6.9942899 -26.837 46.912201
7.1272998 -26.3207 43.843601
12.1268 -8.6278696 28.92
13.2225 -6.8011799 31.964199
13.5483 -7.6985202 31.917
10.2921 -9.4770203 28.373301
9.9581404 -7.99722 25.453199
11.5508 -5.4967999 25.639099
11.9482 -7.6758299 28.643101
7.0650001 -22.5436 34.471401
6.8259902 -19.169701 31.903099
7.2843599 -15.7541 30.327
11.699 -1.61394 19.905001
13.3894 1.2930599 20.853701
13.4358 -0.37072 23.313601
11.8355 -3.4037299 22.4639
8.6448603 -3.35023 17.5508
11.409 0.36328101 17.896
9.0282602 -5.1417599 19.6649
5.1420999 -4.0071001 15.8362
8.3803101 -1.3355 15.4679
5.24927 -6.5720301 18.358
4.2326899 -27.1021 41.6418
0.61568397 -27.4055 42.445
6.79529 -25.7661 40.6749
13.1487 -5.1118898 30.5473
13.3686 -2.59392 26.717699
9.5683298 -6.7505898 22.3925
0.61550498 -9.6275902 20.1968
0.61607099 -6.0770798 17.0392
8.9009895 -11.4281 28.8445
8.3738298 -10.5096 26.059401
7.54389 -9.5219698 23.227699
6.4168701 -8.1385698 20.464199
7.9479299 -13.5223 29.4154
7.0476298 -13.2352 26.867201
5.8650799 -12.5682 24.353201
3.7878301 -11.633 22.560101
6.32581 -16.248301 28.7045
4.3134499 -16.604 27.2656
0.61455798 -16.245501 26.5606
5.7944102 -19.9928 31.1854
3.77653 -20.7486 30.4694
0.614245 -21.0207 30.0562
5.8515501 -23.177 34.702999
3.6827199 -24.2013 35.257198
0.614622 -24.804001 35.4202
15.9733 -2.7339001 40.192902
16.1646 -1.302 42.584999
16.5534 -3.0051799 43.6945
16.690201 -4.6028299 41.407799
14.5173 -5.6249199 35.118
15.498 -4.4686499 37.8186
15.4309 2.22804 50.951099
14.8368 4.4462199 48.562199
14.9583 3.58376 51.588799
13.3776 7.9035902 48.9062
13.7738 9.0534601 45.842602
12.6106 12.2306 44.142799
12.0102 11.1938 47.726299
14.7217 -1.28747 55.292
15.1353 -2.1552 54.405602
14.3422 -5.9005499 57.5844
14.7061 -6.6408601 56.770199
13.7163 -10.8755 58.6982
14.1459 -11.5209 57.9286
12.4914 -15.6365 58.828098
11.3055 -19.875601 58.479198
11.8414 -20.692101 57.4091
12.9643 -16.3307 57.9398
10.02 -23.849501 57.628601
10.5355 -24.4872 56.409302
8.5694504 -26.9266 56.966099
9.0191402 -27.280701 55.465199
6.8469 -28.8862 56.633701
6.9878702 -28.837799 54.690601
5.21105 -29.516399 56.533298
5.2751999 -29.368099 54.438801
3.0423601 -29.676201 56.811501
3.3090999 -29.664499 54.689301
0.61870801 -29.505699 57.125301
0.61819702 -29.627899 55.123299
15.5773 1.06463 49.769901
7.1598601 -28.6208 52.792801
9.4595804 -27.320999 53.759899
10.9379 -25.0993 55.129501
7.0794201 14.1517 48.7155
4.1742501 14.5109 49.1614
15.0695 -7.4429402 55.850101
15.5004 -3.1854 53.4785
16.8475 -5.1262102 45.996799
17.0807 -6.48069 43.4856
16.328899 -1.27293 44.166901
16.477501 -2.37661 46.659
9.8261299 12.9754 47.7271
9.1157198 -27.306299 50.5214
15.8956 -4.5922799 52.684898
16.0807 -1.49657 49.630199
15.4534 -8.3695898 54.803398
14.5 -12.1806 56.999298
14.8993 -12.9 55.876598
12.3115 -21.6476 56.156101
13.4211 -17.0926 56.923
0.617652 -29.995501 53.2262
3.66752 -29.8909 52.769699
5.7100101 -29.327 52.575699
11.0945 -25.7407 54.1511
12.7427 -22.6168 54.537498
7.1135702 -27.7857 50.078701
10.87 -26.5812 51.076801
15.6634 2.4802999 46.282501
16.1227 -0.062176999 46.628899
15.2113 5.8408399 45.2318
14.631 9.1014404 44.087299
15.3101 6.72228 41.900501
14.7511 9.7350597 41.077202
17.103399 -7.8516102 45.0844
16.8484 -6.3080301 48.811901
16.477501 -3.7702301 49.352001
17.0835 -9.1493702 46.798
16.7945 -8.0436697 50.733002
16.2929 -6.20996 51.832401
17.0156 -10.8565 49.022499
16.340799 -11.201 51.960701
15.909 -9.5615997 53.5909
16.608601 -12.7203 50.6702
15.8881 -14.9809 52.109001
15.3586 -13.7803 54.453098
14.7564 -19.8197 52.691101
14.3258 -18.6308 54.624298
13.9265 -17.9573 55.738499
3.88481 -29.5765 50.543301
0.61717999 -29.8276 51.097198
5.8495402 -28.790199 50.224201
12.8524 -24.2437 51.831001
16.0182 0.713844 43.930901
15.715 3.13078 43.317299
15.7607 0.750925 41.951302
15.4976 3.08269 40.8867
15.2832 6.67027 39.327202
15.3395 -0.27021801 39.6273
15.2059 2.0573201 38.682701
15.3403 6.2709498 36.546501
15.1455 -1.56643 38.4813
15.0456 0.386879 36.776798
15.2468 4.8803601 33.721699
15.0139 -3.1294501 37.135399
14.8414 -0.81720299 35.287201
14.2244 -4.7286 34.813801
14.2743 -2.7270899 33.000301
13.9918 10.9666 43.748001
3.78462 16.4275 45.998299
0.62474298 16.959 46.191399
0.62617999 14.6268 49.2686
6.85923 15.9159 45.3937
10.0149 14.5666 44.264301
3.77495 18.699301 42.9044
6.5355802 18.010099 42.375801
6.7436099 20.8314 39.764099
3.47858 21.6299 40.024399
0.62341303 19.273899 43.305302
0.62198198 22.182301 40.2066
9.7067604 17.0954 41.613201
10.0321 19.979799 39.012798
11.6295 16.111799 40.976398
12.8094 17.9401 37.390301
14.038 12.151 40.761799
13.2289 13.976 40.724098
14.4289 12.5637 37.866798
14.957 9.7869301 38.409401
13.835 15.0092 37.6059
14.9284 12.8723 35.037998
15.241 9.6652203 35.794601
15.3382 9.54916 34.576698
15.4955 8.5903301 32.008301
15.5234 7.1311102 29.373301
15.227 3.5667901 32.144299
14.4508 2.35548 24.8634
15.0094 4.4925599 26.6443
14.7114 1.15966 29.716999
14.2733 -0.26157799 28.436701
-7.2216601 -26.7882 47.553501
-8.0959702 -26.761999 47.968201
-6.8931799 -26.197201 44.053299
-6.6547098 -25.016701 40.185501
-3.0546999 -27.905399 44.540798
-2.7298601 -28.6952 47.5648
-4.0290599 -27.456499 44.1898
-4.4363999 -27.921 47.166801
-5.8947301 -26.317499 43.846802
-5.7604899 -26.8339 46.915298
-12.2624 -7.6837201 31.927299
-11.9387 -6.7881198 31.9755
-10.8142 -8.6159096 28.934799
-10.6484 -7.6639099 28.657801
-10.3037 -5.4905601 25.645901
-8.6958199 -7.9960799 25.4618
-8.99189 -9.4706001 28.3927
-5.8372202 -22.569599 34.503799
-6.0000401 -15.7721 30.359301
-5.5651999 -19.197399 31.9394
-10.6012 -3.4003501 22.4678
-12.2001 -0.36720699 23.3176
-12.1538 1.29601 20.8571
-10.4646 -1.61112 19.9083
-7.79526 -5.1392498 19.6677
-10.1743 0.36557701 17.8986
-7.41151 -3.3482101 17.553101
-4.0171299 -6.5706501 18.359501
-7.14645 -1.3338799 15.4697
-3.90924 -4.006 15.8374
-3.00156 -27.1003 41.643501
-5.5696902 -25.7668 40.681599
-11.8679 -5.09905 30.559
-12.1326 -2.5870099 26.724701
-8.3353901 -6.7474699 22.395901
-7.6030598 -11.429 28.8687
-7.0987 -10.5166 26.0732
-6.3120699 -9.5192699 23.230499
-5.18504 -8.13659 20.466299
-6.65411 -13.5313 29.4438
-5.76757 -13.2505 26.8887
-4.6278901 -12.5684 24.358101
-2.5573699 -11.6317 22.561399
-5.0475101 -16.274 28.7358
-3.0640399 -16.616301 27.2815
-4.5415702 -20.022301 31.219999
-2.5369401 -20.7659 30.489901
-4.6263599 -23.1998 34.730999
-2.4551899 -24.2062 35.265099
-15.4483 -4.5949798 41.416599
-15.3097 -2.9974799 43.702202
-14.9206 -1.2945 42.5928
-14.7311 -2.7262101 40.202
-14.2548 -4.4595199 37.828701
-13.2572 -5.61269 35.127602
-13.7075 3.5906799 51.595699
-13.5871 4.4530902 48.569099
-14.1811 2.2351899 50.958302
-10.7591 11.1988 47.7313
-11.3623 12.235 44.1474
-12.5243 9.0592899 45.8484
-12.1261 7.90975 48.9123
-13.886 -2.14819 54.412498
-13.4715 -1.28066 55.298698
-13.4579 -6.6340599 56.777
-13.0932 -5.8939199 57.591
-12.8994 -11.5144 57.935101
-12.4692 -10.8692 58.704498
-11.7201 -16.324699 57.945801
-10.5996 -20.686701 57.414501
-10.0627 -19.870399 58.484299
-11.2464 -15.6308 58.833801
-9.2959995 -24.482401 56.414101
-8.7795897 -23.844999 57.633099
-7.7814398 -27.2766 55.469299
-7.3308702 -26.9228 56.969898
-5.7512999 -28.8347 54.693699
-5.6094198 -28.8832 56.6367
-4.039 -29.365801 54.441002
-3.9739201 -29.5142 56.5355
-2.0729301 -29.6632 54.690601
-1.80518 -29.674999 56.812698
-14.3287 1.0718499 49.7771
-8.2227201 -27.3167 53.764198
-5.9240999 -28.617701 52.795898
-9.6992798 -25.094299 55.134399
-2.9219799 14.5123 49.162899
-5.8275199 14.1543 48.718201
-14.252 -3.17822 53.4856
-13.8221 -7.4359698 55.856998
-15.8386 -6.4727001 43.493599
-15.6037 -5.1183701 46.004601
-15.232 -2.3689499 46.666599
-15.0841 -1.26534 44.1745
-8.5750103 12.9791 47.7309
-7.8804202 -27.3022 50.525501
-14.8333 -1.48911 49.637699
-14.6483 -4.5848999 52.6922
-14.2069 -8.3625603 54.8106
-13.2543 -12.1739 57.006001
-13.6544 -12.8931 55.8834
-12.1777 -17.086399 56.929199
-11.0708 -21.642 56.161701
-2.43238 -29.8895 52.771198
-4.4747 -29.324499 52.578201
-9.8567104 -25.735701 54.1562
-11.5032 -22.610901 54.543301
-5.8787098 -27.7826 50.081799
-9.6340504 -26.5762 51.081799
-14.8761 -0.05469 46.636299
-14.4157 2.48757 46.2897
-13.9627 5.8477302 45.238602
-13.3828 9.1072903 44.093201
-13.5051 9.7402296 41.0826
-14.0638 6.7284899 41.9067
-15.8613 -7.8436198 45.0923
-15.2314 -3.7625699 49.3596
-15.6038 -6.3002 48.819801
-15.8412 -9.1413898 46.806
-15.0468 -6.2024498 51.84
-15.5499 -8.0360804 50.740898
-15.7731 -10.8492 49.030701
-14.6637 -9.5546398 53.598499
-15.097 -11.1942 51.968498
-15.3662 -12.7138 50.6782
-14.1149 -13.7736 54.460201
-14.6461 -14.9748 52.116299
-13.0843 -18.624201 54.630901
-13.5164 -19.8134 52.697701
-12.6842 -17.950899 55.7449
-2.6505899 -29.5749 50.544899
-4.6150999 -28.7876 50.2267
-11.615 -24.237801 51.836899
-14.7725 0.72127998 43.938301
-14.4685 3.1380401 43.324501
-14.516 0.75823897 41.959
-14.2528 3.0894699 40.8937
-14.0386 6.67594 39.333
-14.0964 -0.26293701 39.6357
-13.9627 2.0639501 38.690102
-14.0975 6.2761202 36.551998
-13.9037 -1.55883 38.490601
-13.8041 0.39397001 36.785198
-14.0057 4.88518 33.727001
-13.7733 -3.12096 37.145802
-13.6011 -0.80943 35.2966
-12.9654 -4.7172298 34.824001
-13.0162 -2.71648 33.009998
-12.7438 10.9718 43.7533
-2.5352199 16.4286 45.999401
-5.61025 15.918 45.395901
-8.7666502 14.5698 44.2677
-2.2345901 21.630501 40.025002
-5.4995999 20.832701 39.765499
-5.2891998 18.0117 42.377499
-2.5283101 18.7001 42.9053
-8.4607801 17.0979 41.615898
-8.7884197 19.981701 39.014999
-10.3839 16.114799 40.979698
-11.5663 17.942699 37.3932
-12.7922 12.1554 40.766499
-11.9832 13.9798 40.728199
-13.7127 9.7916203 38.414398
-13.185 12.5676 37.871101
-12.5914 15.0125 37.6096
-13.9983 9.6694899 35.799301
-13.6862 12.8757 35.041901
-14.0962 9.5532398 34.581299
-14.2549 8.5941801 32.012699
-13.987 3.5715001 32.149502
-14.2841 7.13482 29.3776
-13.0358 -0.256181 28.442801
-13.4731 1.16438 29.7225
-13.7715 4.4961901 26.6485
-13.2139 2.35906 24.8675
12.5217 -14.1653 25.164499
10.7046 -25.8081 44.896999
9.1108799 -26.0273 44.309299
8.7028599 -24.6087 39.547001
11.1984 -24.8405 40.079102
11.4058 -13.9875 26.5896
10.5701 -10.4875 28.7747
12.3945 -9.5923204 28.8438
12.3653 -13.0974 25.849001
8.52845 -14.2202 29.866301
9.2943296 -12.4548 28.9988
10.6986 -14.735 27.247801
8.1386499 -16.404499 30.445999
11.1626 -23.902201 33.316002
9.2151003 -21.8088 32.3918
8.4114399 -19.018801 31.7705
8.0459995 -22.2892 34.3545
11.1752 -23.914101 35.065899
8.0972004 -18.877899 31.9326
10.7436 -26.3895 48.4352
10.4354 -9.9741497 28.7509
7.7570901 -16.3253 30.5944
8.9725304 -12.2533 29.087999
8.15275 -14.0764 29.9594
14.5993 -14.2121 24.691099
13.1337 -23.3484 36.204899
13.1689 -22.9088 34.2043
15.7188 -20.8899 34.5527
14.7109 -21.122801 36.330002
17.232 -7.89607 40.500801
17.1499 -9.0990295 37.038898
16.413601 -7.4958401 35.895901
16.752899 -6.06355 38.857601
16.077801 -11.0689 32.153198
15.0961 -9.5553904 31.3969
16.944799 -17.509001 37.201801
17.0749 -15.9901 35.018002
17.020599 -14.7477 37.049301
17.063601 -16.4867 39.438801
14.4102 -11.5281 28.3311
16.002199 -12.7252 29.473301
17.451401 -11.1835 38.4744
17.5121 -9.7308197 42.033699
16.9492 -12.5638 34.3857
16.889601 -13.9261 32.0564
17.496201 -13.1531 40.2178
17.478201 -11.8196 44.026901
17.2994 -15.3269 42.194901
17.212 -13.442 45.9146
16.6614 -17.3983 44.006599
16.771 -15.3255 47.475601
16.0707 -18.760099 41.539101
15.7573 -19.3743 45.231899
15.9808 -17.5949 48.786499
15.6115 -19.8943 42.6082
14.7194 -21.4646 46.562801
14.8127 -20.895201 49.565102
12.7601 -24.7974 48.856098
12.8141 -24.7239 44.984699
14.6499 -21.8398 43.970901
13.1 -24.1467 39.9566
14.6067 -21.5453 39.3013
15.6873 -19.5847 38.250702
15.687 -20.024401 36.274502
16.8627 -18.3302 35.181999
17.112 -17.099199 33.3092
16.840099 -15.4286 30.4202
16.045401 -14.2557 27.374599
14.4761 -13.2018 25.3333
17.096399 -18.1842 32.254902
16.7372 -19.6157 33.793701
16.310101 -15.1026 26.455999
16.9622 -16.551701 29.5243
12.7877 -15.5687 24.3654
11.5952 -14.5507 26.131201
9.8278599 -15.9904 28.563101
9.0282202 -17.932501 29.1014
9.7149696 -23.0242 30.584
11.644 -25.0627 31.797199
8.96385 -20.8249 29.991699
11.881 -34.0317 18.505699
12.7325 -33.167801 17.4293
12.5295 -36.663898 20.462299
11.921 -35.5839 19.822001
12.39 -28.3165 20.090401
13.6893 -27.6056 18.974001
14.0477 -32.647999 16.477699
11.5715 -29.1297 21.280001
14.0858 -37.697498 20.8769
13.6625 -33.0219 24.3813
11.9569 -31.987301 23.604
11.5202 -31.0047 22.896601
11.9145 -23.832199 22.6485
12.6767 -23.097799 21.7111
11.176 -19.5298 25.668301
12.0932 -18.718201 24.4741
10.864 -15.0456 26.9925
10.3118 -20.5322 26.813
11.0584 -24.6451 23.723101
13.8095 -23.188101 21.511
13.3872 -18.3113 23.733601
10.8187 -24.534201 28.6
12.4327 -26.947901 29.876301
11.6457 -28.554501 25.897301
13.3312 -30.255501 26.875401
10.3271 -22.9835 27.991899
10.9955 -27.025999 25.024099
14.7766 -15.5291 24.080999
16.5923 -21.054701 32.1091
17.0431 -19.6644 31.1178
14.2937 -23.876499 32.186501
16.532499 -16.4468 26.0131
17.115601 -17.840599 28.9669
15.4281 -33.117199 16.3666
15.3725 -28.0896 19.1301
16.390301 -34.150101 17.072701
16.4489 -29.1532 19.747801
16.841299 -35.5522 18.451799
16.9767 -30.2738 21.3552
16.540199 -36.9105 19.6959
16.294399 -31.8167 22.687401
15.6009 -37.670898 20.5623
15.0233 -32.658199 23.8715
15.1918 -23.3708 21.4065
14.9275 -18.1854 23.576799
14.4814 -25.9554 29.7057
15.8475 -24.601801 29.041
16.222799 -19.537201 24.884899
16.3489 -24.603001 22.2218
16.6919 -21.337 26.693501
16.799299 -25.8864 23.616501
16.649099 -23.2306 28.1481
16.751801 -27.178699 24.8029
16.097401 -28.5252 25.536501
15.0466 -29.8727 26.379801
12.1409 -45.912899 16.8736
11.3697 -44.972099 16.094
12.6176 -46.0872 16.9468
13.6486 -46.710701 16.9814
14.5315 -46.966202 16.8536
11.2448 -43.601501 14.8439
11.4406 -42.782001 13.829
12.5934 -41.879501 12.76
13.9694 -41.394299 12.0315
11.7962 -42.311298 16.5996
11.7431 -41.252998 14.9651
12.6534 -43.507702 17.362101
11.8725 -40.331402 17.562401
12.7795 -41.383598 18.269199
12.8004 -40.0205 13.6257
11.8308 -38.859501 16.0298
12.8531 -37.7491 14.5473
14.0583 -39.4692 12.655
14.1853 -37.147202 13.3844
14.3733 -44.187 17.5837
14.3826 -42.212299 18.702
14.3679 -40.3349 19.351999
12.7462 -39.452999 19.063801
12.8894 -35.808701 15.5534
14.2628 -35.2505 14.4195
11.8668 -36.8755 16.986
11.9156 -38.409302 18.450399
17.3377 -43.530102 13.8368
17.3901 -44.516701 14.7318
16.8762 -45.740799 15.4616
15.9101 -46.665501 16.2269
15.3512 -41.5005 12.0444
16.5548 -42.308201 12.7321
16.333099 -38.5341 14.0287
16.302999 -40.363998 13.2453
15.2759 -39.583599 12.5014
15.3998 -37.431999 13.2057
17.021601 -41.591702 14.7155
16.932699 -42.7029 16.0007
16.116699 -43.798901 16.922001
16.0753 -42.051899 18.161501
17.0805 -40.0662 15.6624
16.9394 -41.2934 17.123899
16.055901 -40.352699 19.014601
16.9083 -39.716801 18.1784
17.079399 -38.4478 16.7428
16.385201 -36.804298 15.0738
15.4707 -35.643002 14.2764
11.8537 -48.6842 16.947001
11.1995 -48.132099 16.5082
12.2489 -49.1278 16.906401
12.6756 -49.2397 17.180901
13.3164 -49.453201 17.373899
14.4808 -49.879398 17.0282
13.8816 -49.687901 17.206301
10.8748 -45.858898 14.4218
10.8125 -47.686298 15.7287
11.2927 -44.6404 13.1483
12.4928 -43.8965 12.0855
14.0497 -43.526199 11.468
11.1146 -46.085602 12.2859
10.544 -47.3214 13.4909
10.9358 -48.1819 10.9036
10.3286 -49.216301 11.8549
10.3553 -48.428299 12.5371
10.9878 -47.2868 11.47
11.4652 -49.8755 9.8017197
10.9666 -50.612999 10.4692
10.5028 -49.996101 11.1229
11.093 -49.076099 10.2844
12.187 -50.556999 9.6307898
11.8544 -51.029202 10.0673
11.7281 -51.570999 10.5757
11.6667 -52.1418 11.1608
10.9131 -52.165298 11.8264
10.8573 -51.432098 11.221
11.0811 -52.955002 12.4353
12.266 -52.414398 11.2134
11.8681 -53.256599 12.5321
11.351 -53.753399 13.0777
11.2062 -54.3601 14.0255
10.7426 -54.166599 13.7285
11.2569 -54.244801 15.7188
10.6442 -54.0247 15.7064
10.5734 -54.330502 14.7417
11.1537 -54.524101 14.8871
11.6647 -52.398701 17.448601
11.0354 -52.137299 17.4312
10.8636 -53.168598 16.8748
11.479 -53.414101 16.7917
11.1211 -50.558102 17.173599
11.7518 -50.894501 17.3379
12.2972 -54.348999 13.1659
11.9853 -53.8284 13.586
12.5496 -53.2626 12.1737
12.2362 -55.1884 14.01
11.949 -54.293598 14.3509
12.3379 -55.362499 16.084299
12.082 -54.295898 15.6025
11.9769 -54.4599 14.9793
12.2464 -55.5522 15.048
12.7422 -53.161598 18.055401
12.4253 -52.780899 17.124001
12.2592 -53.6106 16.4958
12.5384 -54.327999 17.3437
12.4844 -51.543701 17.079901
12.8183 -51.6875 17.835899
10.3035 -52.119598 12.796
10.3253 -51.100601 12.0767
10.473 -53.6078 13.5211
10.3873 -52.993698 13.292
10.0719 -51.8545 13.7071
10.0737 -51.484299 14.5361
10.1367 -49.977402 13.6902
10.1193 -50.562401 12.922
13.1652 -52.3111 10.9102
12.7034 -52.4039 11.0728
12.2983 -51.4062 17.002001
10.3942 -49.076099 14.7456
10.4526 -52.698399 16.649
10.5835 -51.868 17.010799
10.3448 -52.084599 16.2819
10.3182 -50.906101 15.6617
10.6787 -50.365299 16.6106
10.2587 -53.784 14.5695
10.2848 -53.490101 15.5069
10.1457 -52.618 15.1321
10.1405 -52.922501 14.2402
12.0656 -53.445 16.401501
12.2261 -52.6395 17.0201
11.7744 -54.2826 14.9587
11.8818 -54.095402 15.5437
11.8327 -53.738701 13.5707
11.7608 -54.152 14.3602
12.4079 -45.4048 11.3836
12.3035 -47.4646 10.3117
12.3431 -46.598999 10.7564
12.5918 -49.287601 9.3709698
12.4093 -48.384602 9.7947998
12.8349 -50.1474 9.2686195
14.0762 -45.075699 10.8675
14.0645 -47.0368 9.9024801
14.0707 -46.237301 10.3182
14.2597 -48.819698 8.9108496
14.1176 -47.910599 9.40242
13.7903 -49.798801 8.8871803
14.1911 -52.162201 17.8983
14.6354 -52.332199 17.272301
14.2639 -55.046299 17.5413
14.8754 -54.743401 16.8246
14.8667 -53.805099 17.4223
14.349 -53.818298 18.203199
13.9075 -56.112598 15.1028
14.6795 -55.388901 15.0493
14.7884 -55.396999 15.8462
14.0578 -56.006802 16.220699
13.5648 -54.538799 12.8818
14.2584 -54.119598 13.0062
14.5042 -54.9384 14.0305
13.745 -55.580002 13.9055
13.2562 -53.32 12.0312
14.0438 -53.244999 11.9362
13.646 -52.164501 10.7152
13.507 -51.882301 18.094801
13.3313 -54.8283 17.632401
13.5117 -53.530701 18.3661
13.0022 -56.066898 15.0626
13.1186 -55.898602 16.2528
12.895 -54.583801 12.8758
12.9284 -55.586102 13.8454
14.054 -51.930599 10.3479
14.5097 -51.59 10.0336
14.863 -49.7416 17.1775
17.738701 -45.498901 13.2217
17.9538 -46.393101 14.2191
17.018999 -48.0956 15.5341
17.448299 -47.518799 15.4323
16.531 -48.9678 15.8823
16.2043 -49.194302 16.398001
15.6487 -49.423801 16.936501
15.6493 -43.659302 11.5601
16.9384 -44.4828 12.2521
17.737301 -47.017399 14.999
15.3317 -49.07 8.7252102
14.6437 -49.797798 8.7292004
16.589899 -49.710999 9.26583
15.2689 -50.131802 8.9874697
15.8095 -51.529301 10.4244
15.2702 -52.123402 10.5619
14.8977 -51.1007 9.70189
16.352301 -52.170601 11.3492
15.9876 -53.259102 11.4781
17.150999 -49.092201 9.5951996
15.7023 -48.526798 8.9685602
18.6429 -48.812 11.6264
17.417101 -47.727798 10.5936
17.384899 -47.081799 11.087
18.5376 -48.157299 12.1685
18.351101 -50.132801 10.5359
17.3661 -48.414902 10.0588
18.595501 -49.4846 11.0281
19.078699 -49.350601 13.6751
19.209101 -50.065701 13.0616
19.113899 -50.688599 12.2741
18.844999 -51.111801 11.6498
18.635799 -48.176102 14.1215
18.248301 -47.110802 12.7907
17.711399 -50.1418 15.9081
18.2528 -49.495602 15.8005
18.524799 -52.492599 15.0629
19.160299 -51.879299 14.7666
18.962 -50.969501 15.6092
18.355 -51.628101 15.8218
18.1535 -52.9146 12.8318
18.6714 -52.505402 12.4688
18.974501 -52.463501 13.4942
18.384399 -52.966702 13.8255
17.1465 -51.700699 10.6065
17.6427 -51.359001 10.2936
18.3009 -52.165501 11.4789
17.7857 -52.482899 11.7653
16.1238 -50.931099 9.8890305
16.386 -50.370602 9.5742397
17.2649 -46.057098 11.7202
15.807 -45.2318 10.9846
18.0037 -50.792301 10.2888
15.8407 -47.065899 9.9574499
15.8415 -46.347801 10.4054
15.8116 -47.817501 9.4418297
18.619101 -48.91 15.269
19.410299 -51.0765 14.2656
19.2507 -50.2505 15.0279
18.889299 -51.826599 12.2119
19.208 -51.699402 13.1306
18.599199 -51.5891 11.4422
15.2574 -50.668098 9.3859501
17.097 -50.725601 15.6828
17.6912 -52.736801 14.8255
17.595699 -52.003601 15.4536
17.4667 -53.083302 13.1529
17.6087 -53.156601 13.8783
16.5494 -51.918499 11.209
17.154699 -52.646599 12.2841
16.735001 -51.2953 16.9473
16.9275 -50.9035 15.8439
17.5478 -54.070702 16.8256
17.5086 -53.015301 15.128
17.396999 -52.225899 15.6996
17.290701 -52.911301 17.275999
17.2068 -54.9534 14.3494
17.2864 -53.447102 13.41
17.448299 -53.516499 14.1872
17.524099 -54.961201 15.5937
16.948799 -52.9757 12.4777
16.684799 -54.3694 12.9407
16.127399 -51.632 17.6007
16.919201 -54.6035 17.4506
16.6492 -53.332699 17.957199
16.654699 -55.669399 14.755
16.936899 -55.6287 16.1017
15.4805 -53.8894 11.7062
16.142099 -55.0438 13.2137
14.8635 -52.575802 10.8912
14.8273 -52.314999 17.257299
15.3595 -52.075401 17.816401
15.1846 -54.717499 16.84
16.0196 -54.892899 17.651699
15.7969 -53.726799 18.1556
15.1249 -53.789501 17.409599
15.0299 -55.356998 15.0541
15.8859 -55.930099 15.183
16.0683 -55.876301 16.3979
15.1449 -55.3769 15.8728
14.4822 -54.058601 12.8882
14.9314 -54.199902 12.2182
15.4743 -55.301201 13.6749
14.8142 -54.885399 13.9727
14.4407 -53.0089 11.294
-11.1818 -14.1454 25.1752
-10.0088 -24.8442 40.088699
-7.4970102 -24.6194 39.564499
-7.8779402 -26.023199 44.3134
-9.47717 -25.8043 44.902802
-11.0226 -13.0796 25.861799
-11.0805 -9.5785904 28.857401
-9.2576103 -10.4824 28.795401
-10.0731 -13.9769 26.6071
-9.3751202 -14.7302 27.2687
-7.9858298 -12.4567 29.025101
-7.2277198 -14.2285 29.8964
-6.8484802 -16.4184 30.478399
-7.9713001 -21.819401 32.4137
-9.9393902 -23.900499 33.323502
-7.1437402 -19.034201 31.800301
-9.9624395 -23.914301 35.073299
-6.81633 -22.312799 34.385601
-6.82971 -18.895201 31.964001
-9.50881 -26.3846 48.439999
-9.1288204 -9.9687204 28.771099
-6.4699402 -16.3409 30.6276
-7.6693301 -12.2554 29.114201
-6.8571801 -14.0847 29.9893
-13.2568 -14.1771 24.689501
-13.4852 -21.1007 36.320801
-14.4819 -20.8584 34.537399
-11.9439 -22.8941 34.201
-11.9234 -23.336201 36.2015
-15.5085 -6.0533299 38.866798
-15.1533 -7.4790201 35.902199
-15.8931 -9.0805197 37.042999
-15.9885 -7.8858199 40.508598
-13.8042 -9.5320997 31.4014
-14.7917 -11.0407 32.152901
-15.8265 -16.4625 39.431801
-15.769 -14.7202 37.043701
-15.8168 -15.9564 35.007
-15.7036 -17.479099 37.1903
-14.6955 -12.6895 29.4683
-13.0915 -11.5014 28.3347
-16.269699 -9.7202101 42.039902
-16.200001 -11.164 38.476299
-15.6794 -12.5341 34.382
-15.6063 -13.8891 32.047401
-16.238001 -11.8089 44.032902
-16.2523 -13.1342 40.218201
-15.9735 -13.4327 45.920898
-16.0644 -15.3097 42.1936
-15.535 -15.3174 47.481098
-15.4355 -17.383699 44.004902
-14.8486 -18.7421 41.533001
-14.7497 -17.587299 48.7906
-14.5409 -19.3624 45.2299
-14.3972 -19.879 42.602699
-13.5821 -20.888901 49.569801
-13.5075 -21.456301 46.563702
-11.5246 -24.791599 48.8619
-11.6045 -24.7195 44.988602
-13.4489 -21.8288 43.967701
-11.9108 -24.1394 39.955399
-13.3957 -21.5285 39.2939
-14.4606 -19.5613 38.240799
-15.6151 -18.2953 35.166698
-14.4542 -19.997 36.262299
-15.8474 -17.060101 33.293499
-15.5476 -15.3866 30.406401
-14.7213 -14.2138 27.3647
-13.1303 -13.1685 25.333599
-15.488 -19.577101 33.774799
-15.8291 -18.1415 32.2355
-14.9842 -15.0574 26.443199
-15.6658 -16.5056 29.5063
-10.2638 -14.5383 26.1469
-11.4529 -15.546 24.3729
-8.5207901 -15.993 28.587799
-7.7376299 -17.941 29.128799
-10.4199 -25.056 31.800501
-8.46947 -23.029699 30.601101
-7.6989598 -20.834801 30.016199
-11.4801 -33.137402 17.4172
-10.6412 -34.008499 18.497601
-10.6998 -35.561798 19.812
-11.3197 -36.638199 20.447399
-12.786 -32.607399 16.4585
-12.407 -27.5704 18.962601
-11.1194 -28.2915 20.0858
-10.3137 -29.111799 21.279301
-10.7329 -31.969101 23.5977
-12.4503 -32.992599 24.3638
-12.8856 -37.661201 20.851601
-10.2851 -30.988899 22.8941
-11.379 -23.0728 21.7108
-10.6276 -23.813499 22.6518
-10.7812 -18.700399 24.4821
-9.8767595 -19.519699 25.680901
-9.5412102 -15.0393 27.011999
-9.0264797 -20.529499 26.8295
-9.7836199 -24.6336 23.730499
-12.0679 -18.2836 23.734501
-12.5112 -23.1549 21.503901
-11.2104 -26.9335 29.872801
-9.5720196 -24.5298 28.6089
-12.1143 -30.2313 26.863001
-10.4111 -28.541201 25.896799
-9.0659599 -22.981899 28.005501
-9.7451096 -27.0163 25.0292
-13.4398 -15.4921 24.0769
-15.7768 -19.619101 31.0954
-15.3418 -21.013599 32.0877
-13.0635 -23.851601 32.175499
-15.2135 -16.399599 25.997499
-15.8239 -17.7925 28.946199
-14.0944 -28.042601 19.108101
-14.169 -33.0667 16.3386
-15.182 -29.0993 19.718201
-15.1425 -34.093601 17.037901
-15.7271 -30.218 21.321301
-15.6116 -35.493999 18.4126
-15.0635 -31.767 22.655701
-15.3274 -36.855701 19.657
-13.8055 -32.618801 23.8463
-14.3986 -37.6236 20.528099
-13.8941 -23.3277 21.391001
-13.6063 -18.1467 23.568701
-14.6037 -24.5625 29.0201
-13.251 -25.926399 29.691299
-14.9188 -19.490801 24.867599
-15.0647 -24.552601 22.198
-15.4112 -21.2892 26.671301
-15.5323 -25.8344 23.5886
-15.3904 -23.1847 28.124001
-15.5009 -27.1283 24.773701
-14.8603 -28.4802 25.509701
-13.824 -29.836 26.357599
-10.1923 -44.949501 16.076599
-10.9747 -45.8857 16.8505
-11.4531 -46.056702 16.9207
-12.4887 -46.673 16.9484
-13.3725 -46.9221 16.8151
-10.0505 -43.578499 14.8288
-10.2345 -42.756401 13.8136
-11.3746 -41.8447 12.7389
-12.7427 -41.348999 12.0028
-10.533 -41.2267 14.9497
-10.6031 -42.286301 16.582701
-11.4732 -43.477501 17.338699
-11.5898 -41.3536 18.247499
-10.6712 -40.306999 17.547199
-11.6158 -37.7146 14.5294
-10.6101 -38.833801 16.0166
-11.5736 -39.985298 13.6055
-12.9369 -37.102001 13.3593
-12.8218 -39.424099 12.6279
-13.2012 -42.171501 18.6698
-13.1992 -44.144901 17.5494
-11.5477 -39.424099 19.044399
-13.1772 -40.294998 19.3221
-13.0072 -35.206001 14.3961
-11.6445 -35.775002 15.5374
-10.6379 -36.850601 16.9748
-10.7061 -38.385601 18.437099
-16.2012 -44.450298 14.6793
-16.1366 -43.4631 13.7857
-15.7003 -45.678699 15.4107
-14.7452 -46.611 16.1807
-14.1253 -41.445499 12.0074
-15.3386 -42.245602 12.6871
-14.1522 -37.378101 13.1731
-14.0393 -39.529701 12.4671
-15.0762 -40.303699 13.204
-15.0981 -38.474499 13.9893
-15.7386 -42.641102 15.9529
-15.8122 -41.528 14.6685
-14.8895 -41.9986 18.1194
-14.9359 -43.743801 16.8778
-15.8659 -40.003101 15.6168
-15.7421 -41.232899 17.0776
-14.8632 -40.300499 18.9746
-15.7062 -39.6577 18.134199
-15.8599 -38.386002 16.698999
-15.1443 -36.745499 15.036
-14.2169 -35.589802 14.2454
-10.0468 -48.111099 16.4881
-10.7075 -48.659 16.9224
-11.1055 -49.0998 16.879
-11.5346 -49.209 17.150801
-12.1781 -49.418201 17.3398
-12.7438 -49.648701 17.168501
-13.3433 -49.8358 16.9867
-9.65205 -47.667099 15.7115
-9.6937799 -45.837898 14.4063
-10.0956 -44.615101 13.1317
-11.2841 -43.861599 12.0627
-12.8347 -43.479698 11.4364
-9.3678102 -47.301701 13.4757
-9.9225702 -46.060501 12.2688
-9.7993803 -47.2617 11.4522
-9.1812 -48.408798 12.5217
-9.1560001 -49.196301 11.8389
-9.7502699 -48.156601 10.8851
-9.9100199 -49.049 10.264
-9.3313599 -49.973999 11.1049
-9.7955198 -50.586899 10.4477
-10.285 -49.8451 9.7781897
-10.6839 -50.996399 10.0402
-11.0106 -50.5214 9.6022196
-9.6964703 -51.4076 11.1993
-9.7610102 -52.140999 11.8035
-10.5104 -52.111401 11.1335
-10.5644 -51.5396 10.5486
-10.7278 -53.226398 12.5023
-11.1119 -52.379902 11.1822
-9.9381104 -52.930199 12.4105
-10.2174 -53.727299 13.0504
-9.61586 -54.145599 13.7043
-10.0825 -54.336201 13.9983
-10.0363 -54.501499 14.86
-9.4537497 -54.311699 14.7182
-9.5280895 -54.0065 15.6829
-10.1424 -54.222301 15.6914
-10.365 -53.3913 16.763901
-9.7484503 -53.1502 16.850901
-9.9162998 -52.118401 17.407499
-10.5475 -52.375301 17.4209
-10.6234 -50.870499 17.311399
-9.9893503 -50.5383 17.151199
-11.4072 -53.2272 12.1398
-10.8552 -53.7985 13.5548
-11.1683 -54.316399 13.1323
-10.8268 -54.264801 14.3194
-11.1182 -55.157101 13.9757
-11.1371 -55.522099 15.0132
-10.8596 -54.431499 14.9475
-10.9672 -54.267502 15.5702
-11.2334 -55.332802 16.049299
-11.4341 -54.298302 17.308599
-11.1448 -53.581902 16.4632
-11.3088 -52.751801 17.091299
-11.6339 -53.131302 18.020399
-11.6984 -51.656399 17.8022
-11.3589 -51.514198 17.0483
-9.1672096 -51.080799 12.0585
-9.1568499 -52.1007 12.7767
-9.2497101 -52.974701 13.2712
-9.3411102 -53.588402 13.4991
-8.9624996 -50.544899 12.9056
-8.98034 -49.960701 13.6743
-8.9328499 -51.468899 14.5189
-8.9287901 -51.8382 13.6895
-11.5484 -52.366199 11.039
-12.0086 -52.269901 10.8738
-11.1715 -51.377899 16.971701
-9.23773 -49.058701 14.7293
-9.2185802 -52.069199 16.2624
-9.4600697 -51.851799 16.990101
-9.3327703 -52.682701 16.628099
-9.5422602 -50.348 16.591
-9.1799402 -50.890202 15.6436
-9.00807 -52.9063 14.221
-9.0163803 -52.602699 15.1131
-9.1638298 -53.4743 15.4861
-9.1342001 -53.7673 14.5485
-11.108 -52.611698 16.9888
-10.9495 -53.417599 16.3703
-10.7652 -54.068401 15.5128
-10.6556 -54.255699 14.9282
-10.6376 -54.1245 14.3299
-10.7019 -53.7099 13.5405
-11.2057 -45.369701 11.3595
-11.1455 -46.563599 10.7314
-11.1094 -47.429001 10.2859
-11.2185 -48.347698 9.7673903
-11.4049 -49.248901 9.3414698
-11.6534 -50.1068 9.2366896
-12.8685 -45.028301 10.834
-12.8679 -46.1894 10.2834
-12.8649 -46.9884 9.8668203
-12.9212 -47.861198 9.3654604
-13.0667 -48.768799 8.8720198
-12.604 -49.751202 8.8500004
-13.5165 -52.287701 17.226999
-13.0747 -52.121601 17.8559
-13.2461 -53.776798 18.1579
-13.7591 -53.759102 17.374001
-13.7708 -54.696701 16.7752
-13.1657 -55.0047 17.4951
-12.9586 -55.965199 16.1747
-13.6826 -55.3498 15.7966
-13.5689 -55.341599 15.0004
-12.8024 -56.070702 15.0576
-12.629 -55.537998 13.8619
-13.3845 -54.891201 13.9831
-13.1269 -54.073002 12.9612
-12.4355 -54.497002 12.8405
-12.8998 -53.198799 11.8935
-12.1133 -53.2794 11.9931
-12.4872 -52.119801 10.6761
-12.3899 -51.846699 18.056801
-12.4078 -53.4953 18.326099
-12.2322 -54.7934 17.5921
-12.0188 -55.863602 16.2125
-11.8965 -56.031399 15.0228
-11.8121 -55.549801 13.8066
-11.766 -54.5467 12.8384
-12.8913 -51.882702 10.3067
-13.3428 -51.538399 9.99014
-13.7254 -49.695499 17.1339
-16.775 -46.322102 14.1611
-16.5478 -45.428398 13.166
-16.2847 -47.452702 15.376
-15.8601 -48.0326 15.4796
-15.3802 -48.908501 15.8297
-15.0582 -49.137901 16.347099
-14.5074 -49.371899 16.888599
-14.4357 -43.6017 11.5189
-15.7346 -44.416901 12.2023
-16.567499 -46.948799 14.9416
-13.4565 -49.7439 8.6869898
-14.1394 -49.011299 8.6797504
-14.0855 -50.073799 8.9411697
-15.4052 -49.6441 9.2121897
-13.7254 -51.046101 9.6566601
-14.1102 -52.0672 10.5133
-14.6444 -51.469101 10.3733
-14.8409 -53.198799 11.424
-15.1972 -52.107601 11.2941
-14.5075 -48.465801 8.9215298
-15.9638 -49.021702 9.5389404
-17.358999 -48.079899 12.1051
-16.192499 -47.011398 11.0316
-16.226299 -47.656601 10.5373
-17.4657 -48.733299 11.5617
-17.4195 -49.405499 10.9628
-16.176901 -48.343498 10.0021
-17.1768 -50.054901 10.4714
-18.0492 -49.984501 12.992
-17.9175 -49.271099 13.607
-17.684099 -51.031601 11.5812
-17.953699 -50.607201 12.2044
-17.066099 -47.036201 12.7302
-17.469 -48.100201 14.0575
-17.1052 -49.424198 15.7371
-16.569 -50.074299 15.8472
-17.2225 -51.555901 15.7554
-17.823601 -50.892799 15.54
-18.0233 -51.800301 14.6951
-17.393801 -52.4184 14.9946
-17.2495 -52.892101 13.7575
-17.834101 -52.384399 13.4233
-17.5252 -52.427299 12.3996
-17.0123 -52.8405 12.7652
-16.635099 -52.410301 11.7014
-17.1464 -52.088902 11.4123
-16.475599 -51.285801 10.2319
-15.9836 -51.631302 10.5473
-15.2077 -50.305401 9.5210505
-14.9513 -50.868099 9.8367395
-14.601 -45.172298 10.9407
-16.069 -45.988201 11.6667
-16.8325 -50.716599 10.2256
-14.6399 -46.287399 10.36
-14.6415 -47.0051 9.9112501
-14.6146 -47.756199 9.3949499
-17.464199 -48.8354 15.2042
-18.1038 -50.1712 14.9578
-18.2647 -50.995201 14.1936
-18.059999 -51.618301 13.0591
-17.736799 -51.7467 12.1422
-17.4405 -51.510399 11.3745
-14.0801 -50.6106 9.3390999
-15.9573 -50.662102 15.6249
-16.463699 -51.936401 15.3913
-16.5606 -52.668201 14.7618
-16.475401 -53.087502 13.8147
-16.3286 -53.0144 13.0901
-16.0084 -52.578999 12.2237
-15.3917 -51.854 11.153
-15.7901 -50.8414 15.7868
-15.6069 -51.235802 16.8909
-16.1758 -52.848099 17.214399
-16.268 -52.160301 15.6382
-16.381701 -52.948299 15.065
-16.4384 -54.005299 16.7612
-16.413601 -54.8946 15.5284
-16.3193 -53.448799 14.124
-16.152399 -53.3797 13.3479
-16.0889 -54.8876 14.286
-15.5545 -54.305801 12.8811
-15.806 -52.909698 12.4182
-15.0056 -51.577499 17.547501
-15.5413 -53.274899 17.898899
-15.8172 -54.543098 17.389299
-15.8342 -55.566799 16.039101
-15.5443 -55.607899 14.6941
-15.0182 -54.9842 13.1566
-14.3396 -53.832901 11.6543
-13.7086 -52.5228 10.8445
-14.2421 -52.026501 17.7672
-13.7082 -52.269199 17.211
-14.0171 -53.741699 17.3599
-14.693 -53.675098 18.1019
-14.9209 -54.8391 17.5954
-14.0799 -54.668701 16.788799
-14.0391 -55.327202 15.8211
-14.9691 -55.820702 16.3402
-14.7799 -55.8745 15.1263
-13.9191 -55.307301 15.0032
-13.6937 -54.835999 13.9236
-14.355 -55.246799 13.6214
-13.7958 -54.1478 12.1692
-13.3496 -54.010399 12.842
-13.2912 -52.959301 11.2493
12.0618 2.08392 60.401798
13.2064 0.57780498 59.198898
13.3696 3.9758201 56.9688
11.8264 5.5841498 57.4771
1.95567 -27.907801 64.602303
4.1333899 -27 64.621101
0.62078899 -28.3041 64.568604
0.62012899 -28.568199 62.091702
2.3724101 -28.274401 61.9776
4.5560799 -27.732401 61.769001
6.1217198 -25.2771 64.173103
6.28123 -26.4571 61.467499
7.6236801 -23.1863 63.688301
7.7444801 -24.315901 61.188099
8.9692898 -20.4326 63.386398
9.0448599 -21.3967 61.220402
10.3897 -16.884399 63.046398
10.5146 -17.856899 61.222099
11.4701 -12.8802 62.6418
11.743 -13.9375 60.979401
12.7979 -3.6252201 61.061001
12.2211 -8.3140097 62.069599
12.7718 -9.3183098 60.476898
13.4988 -4.5278902 59.522701
13.9657 -0.32548001 57.9804
14.0405 3.20628 56.064999
10.2932 4.24756 61.2034
7.0265398 5.6394601 61.215302
10.112 6.85356 57.731098
6.8104501 8.0158796 57.609001
3.7460001 6.3373098 60.8335
3.9038999 8.5861998 57.129101
0.628245 6.6642299 60.455002
0.62784398 8.6583996 56.786598
11.926 8.4130898 54.132301
10.1608 9.7276297 53.916801
13.195 6.25632 54.671902
6.9299102 10.6709 53.846901
3.9951301 11.2484 53.604099
0.62768102 11.4387 53.319
14.4275 3.3812001 54.027199
14.3691 -0.805843 56.6063
13.5257 7.3491001 51.8596
12.1631 10.1641 51.029999
10.1899 11.8441 50.889
7.2119699 12.6539 51.1535
4.1279202 13.0886 51.2425
0.62707001 13.199 51.161201
7.9837799 -25.736 58.946701
9.3991499 -22.579599 59.310299
2.7551401 -29.0378 59.305599
0.61939698 -29.0427 59.523102
4.9306698 -28.826099 59.0354
6.4965401 -27.956699 58.917099
10.7978 -18.894199 59.716301
12.0626 -14.8685 59.7752
13.9868 -5.2383499 58.473202
13.2629 -10.1706 59.473
-10.5718 5.58956 57.482498
-12.1161 3.9819801 56.974998
-11.9535 0.58388102 59.204899
-10.8075 2.0894499 60.407299
-2.89115 -26.998301 64.622803
-0.71388698 -27.9072 64.602997
-1.1320601 -28.2736 61.9785
-3.3155701 -27.730499 61.770901
-4.87887 -25.2745 64.175697
-5.0402598 -26.454399 61.4702
-6.3800502 -23.182899 63.6917
-6.5026002 -24.312401 61.191502
-7.7244802 -20.428499 63.3904
-7.8015599 -21.392599 61.224499
-9.1433401 -16.8797 63.051102
-9.2695904 -17.8521 61.226898
-10.222 -12.8749 62.646999
-10.4962 -13.9321 60.984699
-11.5461 -3.6193399 61.066898
-10.971 -8.3084097 62.075199
-12.2482 -4.5216699 59.5289
-11.523 -9.3124399 60.4827
-12.7138 -0.31903699 57.986801
-12.7878 3.21276 56.0714
-5.7701802 5.64255 61.2183
-9.0374899 4.2522302 61.208
-5.5546799 8.0188704 57.612
-8.85676 6.85814 57.735699
-2.48948 6.33881 60.834999
-2.6480801 8.58778 57.130699
-8.9060001 9.7322397 53.921299
-10.6717 8.4185495 54.137798
-11.9415 6.2623901 54.678001
-5.6746702 10.674 53.849998
-2.7397299 11.25 53.605701
-13.118 -0.79920602 56.6129
-13.1757 3.3878701 54.033798
-12.273 7.35533 51.865799
-10.9095 10.1697 51.0355
-8.9359798 11.8486 50.893398
-5.95783 12.6569 51.156601
-2.8736999 13.0902 51.244099
-8.1573296 -22.575399 59.314499
-6.74367 -25.7325 58.950298
-1.51645 -29.0368 59.306702
-3.6919999 -28.823999 59.037498
-5.2575202 -27.9538 58.919899
-9.55404 -18.889299 59.721199
-10.8169 -14.863 59.780701
-12.015 -10.1645 59.479099
-12.737 -5.2319002 58.479599
4.0653701 -26.5326 67.2612
1.7803299 -27.7861 67.417099
6.2202902 -24.569901 66.7164
7.7452202 -22.126301 66.123199
9.09657 -19.625601 65.574203
10.4452 -16.2132 65.0364
11.4012 -12.2871 64.562798
11.6689 -2.40362 63.576099
11.7294 -7.7574201 64.233704
7.1089401 3.8828399 65.933197
10.0077 1.51221 65.133904
3.5861399 4.61307 66.041702
0.62912601 4.8826799 65.905899
0.62147701 -28.334 67.460098
6.2876801 0.41362399 76.485802
3.04125 2.8125 76.3256
0.63121599 2.9523799 76.534203
3.2503099 2.7202699 73.7556
0.63042599 2.6103201 73.592003
6.51753 0.313445 74.168999
8.5251598 -2.9634399 74.815903
8.1125603 -2.8489001 76.653702
10.5281 -14.2025 73.930603
10.448 -13.8686 73.195602
10.0882 -10.3272 74.399696
9.8758097 -10.9064 75.800797
10.213 -16.007299 73.598999
10.0841 -15.7711 72.795898
9.8340101 -17.228701 73.581802
9.0593901 -19.129801 73.740303
8.9468002 -18.937099 72.800301
9.7131205 -17.018299 72.604301
7.4841299 -21.358601 74.726402
7.6800399 -21.2577 73.022202
5.92733 -22.188 75.050003
6.0186901 -22.391399 72.8965
4.3842902 -23.135401 75.887604
4.1829 -24.0333 73.870499
2.4855001 -23.760099 76.5196
1.8762701 -25.0844 75.310799
1.56532 -23.849501 76.901604
0.62436199 -23.988899 77.1138
0.62365901 -25.5399 75.750603
9.5047598 -6.84725 77.081398
9.6801901 -6.6631498 75.326698
10.7894 -16.561399 70.065102
11.0123 -15.4465 70.035797
10.625 -15.9488 67.297997
0.62383598 -27.630501 75.544296
1.73184 -27.1469 75.0243
11.2206 -9.1977501 70.952103
10.4218 -5.3242102 72.414101
11.1826 -13.1032 70.157997
9.9387798 -19.33 70.322304
8.7483797 -21.8955 70.943802
6.5812101 -24.4664 71.855499
4.08529 -26.501801 74.005798
9.0371399 -1.6743701 72.151901
6.6233702 0.87754202 71.624397
3.29721 2.5695 71.215698
0.629852 2.6092999 71.206001
0.62944001 3.55407 68.547096
3.42676 3.4279001 68.609901
6.8488498 2.1540401 69.068398
9.34377 -0.174401 69.137497
11.1365 -4.1276798 68.116096
11.4762 -8.1973104 67.375
11.342 -12.326 67.123199
9.3929501 -19.257601 67.728699
8.1859703 -21.8678 68.421997
6.43329 -24.5471 69.257103
4.16572 -26.6465 69.933403
1.74369 -27.7756 70.210503
0.62219399 -28.492901 70.5989
-0.53712797 -27.7855 67.417603
-2.82164 -26.530899 67.262802
-4.9758701 -24.5672 66.719101
-6.4999099 -22.1229 66.126602
-7.8503098 -19.6215 65.5783
-9.1975603 -16.208401 65.0411
-10.1519 -12.2819 64.568001
-10.4152 -2.3982899 63.581402
-10.4781 -7.7520499 64.239098
-8.75142 1.51674 65.138397
-5.85116 3.8859701 65.936302
-2.32795 4.6145 66.043198
-1.77903 2.60692 76.340401
-5.0265298 0.243678 76.5
-1.98935 2.56602 73.790298
-5.2575302 0.18870001 74.200203
-6.85291 -2.98999 76.667503
-7.2664299 -3.0607901 74.842903
-8.6204205 -10.9088 75.808403
-8.83325 -10.3226 74.404297
-9.1952801 -13.8638 73.200302
-9.2751598 -14.1977 73.935303
-8.83251 -15.7665 72.800499
-8.9611197 -16.002701 73.6036
-8.4622202 -17.013901 72.608704
-7.6967402 -18.9331 72.804298
-7.80897 -19.125799 73.7444
-8.5827398 -17.224199 73.586197
-6.4309802 -21.254299 73.025597
-6.2343202 -21.377001 74.721001
-4.7702498 -22.3888 72.899101
-4.6777701 -22.2391 75.0355
-2.9347999 -24.077499 73.854698
-3.1348 -23.251301 75.867699
-0.62800401 -25.209299 75.285599
-1.23603 -23.938801 76.5019
-0.31571299 -24.061001 76.889
-8.4229898 -6.7177601 75.347099
-8.24681 -6.9300699 77.089996
-9.7618799 -15.4415 70.040802
-9.5395203 -16.556499 70.07
-9.3761797 -15.944 67.302803
-0.48470101 -27.2589 75.002899
-9.1653605 -5.3194799 72.4189
-9.9666901 -9.1926298 70.957199
-9.9309998 -13.0981 70.163002
-8.6900997 -19.3255 70.326698
-7.5006299 -21.8916 70.947701
-5.33427 -24.463499 71.858398
-2.83832 -26.567499 73.9879
-7.7790499 -1.70617 72.170799
-5.3643098 0.823982 71.648697
-2.0375299 2.49754 71.243698
-2.1679101 3.41152 68.620003
-5.5904002 2.14481 69.077499
-8.0864 -0.170192 69.141701
-9.8815298 -4.1226001 68.121201
-10.2236 -8.19207 67.380203
-10.0915 -12.3209 67.128304
-8.1454802 -19.253401 67.732903
-6.9394202 -21.864201 68.425598
-5.1876402 -24.5443 69.259903
-2.9207599 -26.6448 69.935097
-0.49914601 -27.775101 70.210999
1.23787 -20.3951 99.897697
0.630472 -20.398899 99.923897
0.63193899 -20.689899 100.233
1.2361701 -20.6558 100.162
1.78743 -20.7635 100.013
1.7993799 -20.5133 99.767502
3.0448699 -23.112101 99.1521
2.59673 -23.7658 98.962502
2.6615 -23.9279 98.761597
3.2035 -23.275 98.862099
1.95357 -24.3125 98.862297
2.0132201 -24.497601 98.664597
1.3602099 -24.708401 98.866402
1.41084 -24.8827 98.687698
3.36274 -22.469101 99.147797
3.19626 -22.473 99.381302
2.9584899 -21.7425 99.558502
3.1535101 -21.6616 99.267799
2.4656501 -20.8692 99.552299
2.4086001 -21.0944 99.806503
0.63060498 -24.8253 98.839302
0.62910098 -24.9135 98.756798
0.84197199 -24.907499 98.743103
0.84713298 -24.833599 98.837799
4.4588799 0.86804301 83.139503
4.3489799 -0.53870499 85.834099
6.20118 0.708094 78.500198
5.2133498 1.12839 80.968201
7.7976198 -2.4579401 79.7295
7.8475099 -2.4786401 78.300797
3.16889 2.08307 78.556702
3.00472 1.7516 80.6464
3.81547 -0.401241 85.7621
3.8352499 -2.8329501 88.309402
4.5342798 -3.3131399 88.550903
3.95818 1.0010099 82.610497
3.9056201 -5.0924301 90.178497
4.6799002 -4.9877501 89.419403
5.2813001 -4.9215798 88.725998
5.0181499 -6.92172 90.5159
5.6412001 -6.35497 89.127098
2.6849101 1.40046 82.441704
0.63156301 2.2171099 78.711197
11.1175 -10.9155 77.095901
12.258 -10.5032 78.106903
14.3282 -14.4413 77.711998
12.3509 -14.3932 75.8508
0.63199902 1.93256 80.810501
0.63274199 -2.57967 88.43
0.63252199 -5.2147198 90.159599
2.4502201 -5.03122 90.450699
2.36289 -2.39904 88.676903
2.4263699 -0.203914 85.793503
0.63264799 -0.29067099 85.743202
0.63226199 1.49695 82.344101
4.0819602 -7.3954601 91.641899
6.4310598 -5.6082201 87.6259
6.1198802 -8.1602898 89.991402
6.9127898 -7.5714002 88.172096
6.41675 -9.7865601 90.107201
6.6907301 -10.5432 90.450104
7.5791502 -10.4582 88.788399
7.24716 -9.4770098 88.3041
7.3381 -7.2318101 87.031799
7.1016002 -5.8371601 86.732101
7.7356701 -10.3883 87.626999
7.6055698 -9.4540005 87.133904
7.7392602 -5.9879298 85.960403
7.6969299 -9.4139204 86.764099
7.8786502 -10.2336 86.8106
9.2440205 -10.0437 85.052002
9.1001301 -9.3224201 85.247398
10.9458 -9.9927797 83.111
11.5246 -6.45119 82.299896
11.023 -6.4739199 83.391403
12.3148 -8.3314304 82.552101
13.4953 -8.5543699 81.434799
9.5214701 -6.37817 84.276802
9.6402102 -16.747299 83.485298
10.4104 -17.671301 82.112999
12.9792 -16.271999 81.407898
11.5347 -15.1819 82.153397
9.3545303 -11.8999 85.087502
10.9401 -12.1027 82.621201
8.6921997 -12.1383 87.0998
8.0652599 -12.0233 87.8881
10.6838 -18.487499 80.950897
13.6492 -17.378099 80.145401
7.3533101 -11.7262 88.874001
14.5794 -12.1697 80.810402
13.0165 -10.9275 81.962502
12.4187 -13.3639 81.68
14.3979 -14.7069 80.781197
15.3419 -13.6949 79.275902
15.0933 -16.137699 79.323799
13.0971 -9.6835299 79.475304
9.8372402 -5.2220302 80.059097
9.6357002 -6.7370801 77.976898
9.8340101 -6.30269 78.847198
5.7978702 -20.693001 84.7658
5.34763 -20.0487 83.653603
5.3750701 -21.1294 84.271797
5.6171699 -21.1978 84.202904
4.6497698 -22.2353 85.900497
4.8611698 -22.292299 85.893402
1.21435 -28.9564 92.795197
0.62666303 -29.028 92.751404
0.626598 -29.2764 92.7341
1.21918 -29.1752 92.829002
1.73834 -28.9855 92.755699
1.71474 -28.797501 92.779198
2.5547199 -28.3965 92.184402
2.57212 -28.2458 92.377296
3.39884 -27.439301 90.982002
3.3320999 -27.202499 91.056999
3.7557299 -26.302099 89.483902
3.65434 -26.180901 89.525101
4.0784202 -24.7306 88.2836
3.9621501 -24.628799 88.340599
4.08531 -23.477301 87.275597
4.24646 -23.5562 87.2463
10.4113 -19.679399 75.6996
12.044 -18.251301 74.949699
12.9944 -18.4492 77.5765
10.7776 -19.4496 78.463303
0.630467 -19.977501 99.480598
1.25519 -19.926901 99.467499
0.63240898 -10.1924 92.659203
1.915 -10.6059 93.039101
2.56091 -8.9491196 92.289001
0.63230699 -8.8662996 91.918503
4.0636802 -8.98594 92.264297
2.65061 -7.6139202 91.858299
0.63230801 -11.8407 92.882599
1.62375 -12.1488 93.126602
0.63076699 -12.2589 92.976303
0.630597 -14.6822 94.702103
1.43604 -14.6254 94.810501
1.54589 -12.4954 93.197701
0.63207698 -16.2097 96.308403
1.3724 -16.1164 96.303101
1.83986 -20.0191 99.3097
0.63049603 -19.2183 98.836601
1.26912 -19.1546 98.812202
1.9447401 -19.179501 98.569
0.63203597 -17.738899 97.674202
1.31847 -17.586599 97.612396
2.0477099 -17.7288 97.426102
2.1326101 -16.197201 96.037598
2.24453 -14.7215 94.566704
0.63036799 -25.2199 98.251503
0.82008302 -25.205601 98.265404
6.4847202 -11.9617 90.012703
6.35251 -12.1289 89.944504
6.6477699 -12.2151 89.936996
6.7285299 -12.0297 89.9356
6.2137499 -11.8014 90.588303
6.0496101 -11.7392 90.391197
6.1532102 -12.4521 89.940399
6.3931098 -12.6864 90.014
5.64397 -12.9595 90.040001
5.8246198 -13.3397 90.246399
5.0933499 -13.0759 90.031197
5.18892 -13.4135 90.2976
6.7845502 -13.6635 89.294601
6.5019898 -13.0565 89.889801
5.89183 -13.6434 90.184097
5.97047 -13.8445 89.901901
4.60255 -13.0856 90.230698
4.7298398 -13.2896 90.479401
5.1822801 -13.7132 90.346603
5.2539001 -13.8958 90.2463
4.30444 -12.8541 90.429298
4.21594 -12.9914 90.628502
4.7049298 -13.5935 90.611198
4.68293 -13.7839 90.588402
4.3853402 -12.4023 90.765999
4.3222198 -12.4673 90.973602
4.1464601 -13.1434 90.869698
4.1259799 -13.2057 90.926697
4.7002602 -11.926 90.800201
4.7044501 -12.0075 91.063698
4.2615299 -12.558 91.192902
4.5816102 -12.043 91.364304
5.0953498 -11.883 91.0513
5.04458 -11.7695 90.742104
5.0381398 -11.843 91.411003
5.5252199 -11.9357 91.041496
5.4347401 -11.6819 90.714104
6.3829999 -11.8539 90.752098
5.5587201 -11.8394 91.316902
6.8982401 -12.0393 89.931602
4.7523699 -22.818001 94.356499
4.4784098 -23.4832 95.518402
4.7274799 -23.3071 93.7743
4.6414399 -22.044201 95.659203
4.48353 -22.4098 96.450401
4.2311702 -24.214199 95.270599
4.5173302 -23.8825 93.495903
5.0352502 -22.213699 92.833504
4.9946098 -22.944 91.8657
4.1100798 -21.3839 96.905602
4.10534 -22.6838 97.766296
3.9765 -23.644699 97.3386
5.0131001 -21.2792 94.093002
3.7934301 -24.2143 97.096001
3.8148501 -24.643999 95.357903
4.1290202 -24.322599 93.436798
4.7905202 -23.434 91.395699
5.3532801 -21.4923 91.358597
5.11801 -22.308001 90.304001
3.3968301 -23.820801 98.247704
2.85462 -24.353201 98.1735
3.3970499 -24.7269 97.024696
3.5978601 -23.445999 98.310402
2.22368 -24.882 98.159897
2.66273 -25.348 97.161201
3.7780399 -22.6152 98.436897
1.59089 -25.1499 98.327103
1.78839 -25.355801 97.486198
3.18959 -25.082199 95.595703
3.5903699 -24.423901 93.503197
3.73264 -21.8188 98.452301
3.6163499 -20.681601 97.398499
3.4172699 -21.291599 98.568001
4.3311 -23.6481 91.502403
3.8432 -23.6112 91.559196
4.4488602 -20.3514 95.196899
5.2277398 -20.3993 92.465302
4.9903002 -22.5212 89.780502
4.55621 -22.745899 89.744202
4.1419601 -22.6616 89.820297
4.07165 -19.8046 95.713097
4.63697 -19.373199 93.6717
5.7417698 -20.546101 89.601501
5.5422201 -20.931999 88.634201
5.40277 -21.346399 88.143204
6.8733001 -12.1172 89.744003
7.6624098 -13.0752 88.851997
7.1859198 -14.4074 88.058403
7.7634201 -15.0524 87.013199
8.7046499 -13.7748 85.762001
8.3111296 -13.5075 87.707802
6.0142498 -14.1201 89.711304
6.2564402 -14.9112 88.720001
5.2398801 -14.2891 90.134804
5.31778 -15.2214 89.540199
4.5992198 -14.1935 90.686302
4.5097499 -14.9063 90.444504
4.02668 -13.6343 91.112099
3.9317999 -13.7896 91.153297
4.3252401 -12.7673 91.671097
4.1766601 -13.0033 91.584396
4.7053699 -11.9506 91.7911
5.1448498 -11.5769 91.778702
6.56182 -11.4421 90.6707
5.7417698 -11.3815 91.584
7.2954102 -11.6665 89.361198
2.45981 -20.3155 99.020599
2.7600801 -20.659901 98.811203
2.6643701 -19.4967 98.110397
3.00407 -20.029699 97.783997
4.8908701 -10.9088 92.538803
4.0592799 -11.5418 92.775497
